# .PCD v0.7 - Point Cloud Data file format
VERSION 0.7
FIELDS x y z
SIZE 4 4 4
TYPE F F F
COUNT 1 1 1
WIDTH 200
HEIGHT 1
VIEWPOINT 0 0 0 1 0 0 0
POINTS 200
DATA ascii
0.00052057207 0.09856917 0.047773264
-0.0052305385 0.094229028 0.047229387
-0.011421449 0.088207506 0.044821344
0.013767768 0.11669571 0.045484424
0.0058018975 0.12426387 0.041684859
0.019290481 0.12408765 0.039587252
0.012803331 0.12257347 0.042455129
0.0065226331 0.12853314 0.036154173
0.01992606 0.12743354 0.034364611
0.00056184828 0.11561377 0.046205036
-0.0059769154 0.11060305 0.046619639
0.0069630779 0.11110432 0.047208034
-0.0002502501 0.10464786 0.047579445
-0.00028877333 0.12079279 0.043273918
-0.0098592341 0.11642183 0.043005176
0.0063515082 0.11970174 0.045337841
-0.013395093 0.1042717 0.045173123
-0.019974969 0.098196492 0.042461552
-0.0092756152 0.098684728 0.046898536
-0.016356923 0.091721758 0.043789349
-0.017133445 0.11002421 0.041730277
-0.023964427 0.10279971 0.038553834
-0.0046260953 0.12482157 0.03848017
-0.013569415 0.12093922 0.037270777
-0.018230654 0.11818085 0.035219803
-0.027691141 0.10593222 0.033009797
-0.015648611 0.083596528 0.042206325
-0.070568778 0.055407152 0.051325895
-0.07224416 0.071568578 0.049076222
-0.077241383 0.067653783 0.050527923
-0.066784613 0.06664487 0.046433859
-0.070889361 0.061415896 0.05062557
-0.074270569 0.052184556 0.050517008
-0.082948647 0.061772343 0.047956862
-0.079762228 0.054491967 0.047888987
-0.083019115 0.051596284 0.041653126
-0.057676233 0.054299071 0.047522396
-0.063919954 0.051574469 0.049277835
-0.055095278 0.052103385 0.045915194
-0.058234029 0.046683945 0.045237079
-0.057836264 0.061762713 0.043670319
-0.063660502 0.057866953 0.048653774
-0.053038023 0.05611524 0.040144965
-0.055322714 0.046018578 0.039706051
-0.07056161 0.047056742 0.047835328
-0.063702695 0.043930665 0.043529682
-0.073812224 0.044715919 0.043712839
-0.077953152 0.044148389 0.039164163
-0.066065364 0.041073419 0.03879451
-0.072635137 0.039074503 0.035160199
-0.072624244 0.087987214 0.045519225
-0.072905131 0.090541109 0.043252818
-0.075477518 0.12698467 0.032922491
-0.076592319 0.12601045 0.03267733
-0.073741533 0.12522364 0.031963624
-0.063406549 0.1190978 0.027871199
-0.074013241 0.10112458 0.031157382
-0.075490214 0.11876953 0.031709574
-0.079637535 0.11190804 0.030139275
-0.068987019 0.11157973 0.029129826
-0.076826774 0.10570994 0.030541144
-0.076925136 0.083203033 0.047329143
-0.083765514 0.077080347 0.046051599
-0.079415657 0.087126344 0.043349534
-0.086700015 0.08109311 0.041869357
-0.088953309 0.073018514 0.043259896
-0.092957444 0.074760169 0.037901692
-0.09703777 0.072161444 0.032749265
-0.078937776 0.098903708 0.029895887
-0.081135951 0.10103637 0.028064415
-0.098477431 0.072717972 0.029972315
-0.068194591 0.084041357 0.043194614
-0.060144678 0.077891767 0.039505146
-0.068189777 0.088079989 0.040109068
-0.053971723 0.085948661 0.030731365
-0.059735842 0.083866239 0.03535118
-0.024749815 0.093675122 0.038959689
-0.022664823 0.085799061 0.039294288
-0.030304842 0.079936221 0.034960665
-0.029377781 0.095799774 0.033918045
-0.037442006 0.088941559 0.030392461
-0.029150799 0.08958149 0.035285302
-0.034048587 0.085124865 0.033278868
-0.052745238 0.072396703 0.038143143
-0.037566483 0.073660418 0.033232421
-0.045768194 0.067025848 0.033184029
-0.045729458 0.083003804 0.029824056
-0.050631985 0.079127297 0.033431031
-0.041940451 0.078128055 0.031587116
-0.045749784 0.074619405 0.030747615
-0.062050804 0.11443162 0.023434609
-0.068026118 0.096402898 0.030262485
-0.05483903 0.088192776 0.02795168
-0.060856014 0.090829566 0.028379522
-0.0650227 0.10635294 0.025256947
-0.066516168 0.10006526 0.025907718
-0.033105172 0.099160723 0.029047333
-0.039384879 0.093549326 0.026984408
-0.048511572 0.088904187 0.025054693
-0.071726076 0.078602389 0.047138505
-0.081078805 0.073055752 0.048617095
-0.064571373 0.073106572 0.042323843
-0.088388793 0.066037722 0.043551989
-0.090317778 0.061497945 0.038916901
-0.086501367 0.055072978 0.039165609
-0.093850575 0.069452882 0.037620723
-0.094887532 0.065819286 0.033104263
-0.08989536 0.060238201 0.026373975
-0.057853416 0.06823238 0.041632839
-0.05013708 0.059419561 0.03352695
-0.081688859 0.046398833 0.034375884
-0.074397974 0.039273329 0.029889651
-0.084941484 0.051697135 0.022316784
-0.081516571 0.047620263 0.018357061
-0.096209385 0.066193938 0.02660276
-0.090293221 0.061436299 0.022615783
-0.079159848 0.048127435 0.011787675
0.022024862 0.10419558 0.046977304
0.034828804 0.10393079 0.042918652
0.028346479 0.10092965 0.045986541
0.03880877 0.10038956 0.040745974
0.035299711 0.094751403 0.043097429
0.043972652 0.095359609 0.036612593
0.041604418 0.088691778 0.038323067
0.022066899 0.087225586 0.048559465
0.016158398 0.082964584 0.049155004
0.015118234 0.10009725 0.048214555
0.0073841512 0.094769605 0.046746053
0.021901246 0.093881637 0.048069619
0.013313971 0.088513345 0.047926255
0.0087267458 0.076758578 0.049184538
0.0019959323 0.070470944 0.047111206
-0.0002531372 0.088646762 0.045580916
-0.0078043118 0.082484841 0.043300234
0.0043714978 0.083429076 0.045389645
-0.0034048781 0.076576546 0.042429723
0.028312497 0.083570927 0.046050891
0.022151202 0.077228114 0.048050247
0.035077058 0.07859505 0.042657487
0.028607592 0.070977502 0.043524437
0.029512316 0.088874266 0.04566513
0.03892931 0.082234979 0.040566117
0.015072271 0.070126206 0.047532834
0.0075523593 0.063552737 0.045717791
0.021477193 0.063498497 0.043568127
0.013839182 0.057632625 0.041069113
0.050430976 0.088675551 0.030530587
0.04761181 0.08361005 0.031733297
0.052224427 0.077435657 0.026869096
0.056020848 0.070141435 0.019470483
0.039644409 0.072000712 0.037141241
0.034771763 0.06513375 0.038312562
0.04345404 0.066227742 0.031676315
0.040791452 0.060066178 0.031786211
0.043490656 0.075713649 0.034474447
0.047921762 0.068940528 0.02925203
0.04644952 0.062083427 0.027871989
0.02781371 0.058061548 0.037647791
0.019936185 0.052524932 0.034560628
0.033782814 0.052858807 0.031014301
0.025711797 0.047616035 0.027890451
0.025162838 0.043865222 0.022317015
0.043786928 0.0557051 0.026738688
0.052969672 0.06478969 0.02053342
0.047439139 0.056601182 0.021038584
0.057034262 0.060435534 0.016949482
0.050431989 0.053145632 0.017009571
0.037767794 0.050207719 0.025537036
0.031449802 0.041847512 0.021321572
0.034871757 0.036645196 0.0178378
0.039837752 0.04889477 0.019541293
0.03157049 0.043476149 0.019588858
0.043265641 0.045920018 0.016850177
0.038210262 0.040281307 0.017240278
0.038104326 0.1197321 0.030084059
0.026295967 0.11606237 0.041471124
0.020855248 0.11141121 0.045326732
0.033330165 0.11073576 0.040481731
0.028775968 0.10777615 0.044098057
0.025872853 0.12115246 0.038510107
0.020515967 0.11986631 0.042238258
0.034869969 0.11791155 0.034604952
0.043602314 0.11463018 0.028051734
0.059127688 0.11389156 0.019807301
0.050522432 0.10956971 0.022973537
0.041002154 0.10551286 0.036619924
0.047288746 0.099209361 0.031974889
0.042415023 0.11195375 0.031498134
0.049247891 0.10551454 0.026806198
0.035505157 0.12466352 0.024947129
0.034274444 0.12848702 0.01962509
0.026435774 0.12677155 0.030880153
0.03225014 0.12507844 0.028181411
0.042314898 0.12012406 0.021326274
0.05941996 0.11619987 0.018131699
0.053822126 0.11306155 0.017017785
0.042248234 0.12271851 0.015581194
0.013168927 0.10591019 0.047123246
0.0063184053 0.10085095 0.046491228
0.065441117 0.095029742 0.020651385
