# .PCD v0.7 - Point Cloud Data file format
VERSION 0.7
FIELDS x y z
SIZE 4 4 4
TYPE F F F
COUNT 1 1 1
WIDTH 102
HEIGHT 1
VIEWPOINT 0 0 0 1 0 0 0
POINTS 102
DATA ascii
0.043461427 0.13028672 0.019140292
0.034658596 0.13611817 0.020449534
-0.074913651 0.10163835 0.020034865
-0.06367287 0.10455215 0.016236324
-0.060152188 0.11530331 0.012186246
-0.077713177 0.10723861 0.01727714
-0.071411818 0.11670714 0.017124321
-0.062459901 0.12069698 0.015165739
-0.075249687 0.12751172 0.016169105
0.050928585 0.11980145 0.030555226
0.058334403 0.12404087 0.026070841
0.039841756 0.12961546 0.029184423
0.030522238 0.13480935 0.028728418
-0.071987107 0.046872173 0.013501395
0.018053319 0.13712397 0.032594182
-0.045951702 0.09195742 0.021720458
-0.036744684 0.095864043 0.026262149
-0.029770501 0.10802758 0.027180657
-0.017169476 0.1269109 0.030572668
-0.0066971183 0.13344896 0.033286273
0.0045059249 0.13747354 0.031954128
-0.085506335 0.061099574 0.021076739
-0.058758155 0.093532935 0.022532459
-0.052405417 0.090622544 0.025331996
-0.093877956 0.070917696 0.022843495
-0.066389918 0.098769292 0.021936946
0.066666819 0.10639249 0.034001648
0.047933772 0.11400764 0.038016714
0.041264229 0.12220509 0.03773538
0.023615159 0.12814698 0.043027833
0.029191565 0.12830162 0.040236898
-0.043658972 0.072686799 0.034974158
-0.035896331 0.079827897 0.034789782
-0.029331259 0.086909138 0.036153521
-0.022822842 0.094189137 0.040174134
0.0038284659 0.12297723 0.046635531
0.013686631 0.13216731 0.041347645
-0.077529967 0.049890965 0.020723321
-0.0516202 0.078414053 0.03741039
-0.044121943 0.083646707 0.03053993
-0.030824512 0.093865484 0.033598565
-0.027065575 0.10189228 0.034691453
-0.020116501 0.11263636 0.039260097
-0.010513127 0.12356275 0.041442968
-0.00080464035 0.12947607 0.041967161
0.0030394197 0.13447043 0.03813193
-0.064008698 0.079037517 0.03940456
-0.058961689 0.085909516 0.033648774
-0.090670377 0.06811066 0.031105652
-0.088205978 0.077448554 0.034731157
-0.080209315 0.087571107 0.037952688
-0.070599839 0.092853174 0.03580825
0.045734569 0.057571925 0.038799312
0.05252073 0.065624051 0.039045081
0.058367841 0.076111451 0.037665688
0.049128871 0.081451684 0.045487434
0.053388149 0.089547917 0.041928187
0.049109533 0.098679788 0.043524414
0.041620869 0.10526724 0.04728286
0.034078501 0.11322882 0.049106069
-0.0039909258 0.087502047 0.048327237
-0.0026238039 0.096238635 0.049008302
0.0050613806 0.10702833 0.050000921
0.015669543 0.11041335 0.052582383
0.022083201 0.11923264 0.049075529
-0.069592118 0.04316245 0.036360703
-0.063422859 0.046995886 0.043119516
-0.049594328 0.063999832 0.039688881
-0.016987428 0.097358473 0.044352949
-0.010588318 0.10457362 0.047312103
-0.00043398142 0.11311964 0.048190281
0.010185152 0.11842238 0.048719913
-0.076801747 0.049498186 0.038049776
-0.057098851 0.068859443 0.044356197
-0.057058349 0.074703805 0.040913794
-0.082652539 0.057721809 0.038922157
-0.07907179 0.060894601 0.04662773
-0.07012482 0.073603153 0.046195813
-0.082548589 0.067724444 0.044523753
-0.07703276 0.079437464 0.043685
0.037608672 0.049243689 0.040679645
0.039391845 0.051692106 0.03922914
0.02905862 0.053669985 0.040993415
0.034911256 0.061730817 0.046277199
0.0440844 0.07023821 0.047145084
0.046332963 0.076667055 0.046618514
0.024904814 0.067686081 0.051416472
0.034803409 0.078639425 0.052996069
0.041526701 0.087137595 0.049659468
0.0174805 0.073654644 0.055200659
0.02757727 0.084949031 0.055694543
0.03574086 0.094403371 0.053014591
0.0069993883 0.083383478 0.056389727
0.016989622 0.094141521 0.05699712
0.024370965 0.10064001 0.054920502
0.010977119 0.10169411 0.053500451
-0.059559017 0.052755427 0.048319399
-0.053790897 0.056538958 0.0468539
-0.072056457 0.050969895 0.045791578
-0.066630125 0.057044558 0.050423667
-0.060388044 0.064066976 0.049456179
-0.07233572 0.061488278 0.050854601
