# .PCD v0.7 - Point Cloud Data file format
VERSION 0.7
FIELDS x y z
SIZE 4 4 4
TYPE F F F
COUNT 1 1 1
WIDTH 1747
HEIGHT 1
VIEWPOINT 0 0 0 1 0 0 0
POINTS 1747
DATA ascii
8.28829 -19.468901 197.662
8.5571203 -19.454399 197.51401
8.6927099 -19.4501 197.47099
8.82971 -19.4491 197.461
8.9658098 -19.4461 197.42999
9.1017199 -19.442801 197.397
9.2390299 -19.4426 197.395
9.3761501 -19.441999 197.38901
9.5143204 -19.443501 197.40401
9.6507502 -19.4415 197.384
9.7842903 -19.4338 197.306
9.91716 -19.4251 197.217
10.05 -19.4165 197.13
10.1842 -19.410601 197.07001
10.5874 -19.395399 196.916
10.7222 -19.3913 196.87399
10.8581 -19.3892 196.853
10.9926 -19.3846 196.806
11.1275 -19.381001 196.769
11.5351 -19.375299 196.71201
11.6741 -19.3787 196.74699
11.812 -19.3804 196.763
11.9503 -19.3825 196.785
12.0925 -19.3909 196.87
12.235 -19.3995 196.95799
12.3807 -19.412901 197.09399
12.5334 -19.437 197.338
13.7803 -19.6478 199.478
14.5368 -19.544701 198.43201
14.6707 -19.539 198.37399
14.8131 -19.544701 198.43201
14.9607 -19.5571 198.558
15.1057 -19.565901 198.647
4.62989 -19.5716 200.119
4.9022899 -19.5467 199.86501
5.3085098 -19.5056 199.44501
5.7101102 -19.4547 198.925
5.8443699 -19.440701 198.78101
5.9799399 -19.431601 198.688
6.1156101 -19.423201 198.60201
6.2516999 -19.416401 198.533
6.3892698 -19.414499 198.513
6.5286698 -19.4181 198.55
6.66645 -19.4168 198.537
6.8008699 -19.406 198.42599
7.0692401 -19.3843 198.205
7.3333998 -19.353201 197.886
7.5987802 -19.3274 197.623
7.7335701 -19.3204 197.55099
8.0021296 -19.3048 197.39101
8.1374502 -19.299801 197.341
8.2736797 -19.2971 197.313
8.4109802 -19.297001 197.312
8.5476398 -19.295401 197.295
8.6834803 -19.292101 197.261
8.8190098 -19.288099 197.22099
8.9548502 -19.285 197.189
9.0905199 -19.281601 197.15401
9.2268896 -19.279699 197.136
9.3639202 -19.279301 197.131
9.5017595 -19.2805 197.144
9.6392899 -19.281099 197.14999
9.7740402 -19.276199 197.099
9.9057903 -19.2656 196.991
10.0371 -19.254499 196.877
10.1698 -19.246099 196.79201
10.3033 -19.2397 196.726
10.703 -19.2197 196.521
10.8369 -19.214399 196.468
10.9712 -19.2101 196.423
11.1078 -19.2099 196.42101
11.2441 -19.209101 196.414
11.6567 -19.2131 196.45399
11.7972 -19.2192 196.51601
11.9342 -19.2195 196.52
12.0744 -19.2248 196.57401
12.2168 -19.233601 196.66299
12.3576 -19.2397 196.726
12.5037 -19.2537 196.869
12.6499 -19.2677 197.01199
12.947 -19.3018 197.36099
13.1063 -19.334 197.69
13.843 -19.402201 198.38699
13.9695 -19.386 198.222
14.1015 -19.3778 198.138
14.3708 -19.3689 198.047
14.5083 -19.368401 198.04201
14.6535 -19.378099 198.142
14.7963 -19.384501 198.207
2.72174 -19.738501 203.274
2.8591299 -19.7101 202.981
2.9960499 -19.681299 202.685
3.13235 -19.651199 202.375
3.26846 -19.622499 202.08
3.40358 -19.5905 201.75
3.5384901 -19.5599 201.435
4.62113 -19.395399 199.74001
5.1594601 -19.328501 199.05099
5.2924399 -19.3081 198.841
5.5594802 -19.274099 198.491
5.82797 -19.2481 198.22301
5.9639902 -19.241699 198.158
6.1013098 -19.2397 198.138
6.23948 -19.2404 198.145
6.3777499 -19.2414 198.155
6.51759 -19.247 198.213
6.6553702 -19.2465 198.207
6.9236999 -19.2253 197.989
7.0565701 -19.2117 197.849
7.3218098 -19.1849 197.573
7.58954 -19.166401 197.382
7.7248702 -19.1612 197.32899
7.8597002 -19.155001 197.265
7.99371 -19.1471 197.18401
8.1280203 -19.1401 197.112
8.2638702 -19.1369 197.07899
8.4017897 -19.138599 197.09599
8.5394897 -19.1397 197.10699
8.6757202 -19.137501 197.08501
8.8112497 -19.1339 197.048
8.9465704 -19.1299 197.007
9.0817604 -19.125799 196.964
9.3544798 -19.1227 196.93201
9.4918404 -19.123199 196.938
9.6277905 -19.121 196.91499
9.7627296 -19.1168 196.871
9.8952503 -19.108 196.78101
10.0253 -19.094801 196.645
10.1571 -19.0853 196.547
10.2895 -19.077101 196.463
10.4218 -19.068899 196.37801
10.6855 -19.0515 196.19901
10.8192 -19.0464 196.146
10.9549 -19.045 196.132
11.0901 -19.042601 196.108
11.2252 -19.040199 196.08299
11.3627 -19.042 196.101
11.4997 -19.0427 196.10899
11.6391 -19.0474 196.157
11.778 -19.0513 196.19701
11.9177 -19.056299 196.24899
12.0577 -19.0616 196.30299
12.1984 -19.0679 196.368
12.3412 -19.077299 196.465
12.4851 -19.0882 196.577
12.631 -19.1019 196.718
12.9221 -19.1273 196.98
13.071 -19.144699 197.159
13.2224 -19.165199 197.37
13.6557 -19.194799 197.675
13.7995 -19.2034 197.763
13.9346 -19.1999 197.72701
14.0717 -19.1991 197.71899
14.2136 -19.204901 197.778
14.3511 -19.204599 197.776
14.4908 -19.2073 197.80299
14.6388 -19.2208 197.94299
14.7828 -19.228901 198.026
2.1629801 -19.663099 203.96001
2.3027301 -19.643999 203.76199
2.5803399 -19.5977 203.283
2.71788 -19.569099 202.98599
2.85484 -19.539301 202.677
2.9918001 -19.5124 202.397
3.12795 -19.4828 202.09
3.39906 -19.424101 201.48199
4.0708499 -19.2843 200.03101
4.2056799 -19.264099 199.82201
4.7428498 -19.186199 199.013
5.0110898 -19.152399 198.66299
5.4126801 -19.1054 198.17599
5.5475101 -19.094601 198.064
5.68188 -19.0828 197.942
5.8177199 -19.076401 197.875
5.9552498 -19.075701 197.867
6.0942402 -19.079599 197.908
6.23212 -19.079901 197.911
6.3694201 -19.078501 197.896
6.50809 -19.0811 197.924
6.6452298 -19.0793 197.905
6.7801499 -19.071199 197.821
6.9127302 -19.0571 197.675
7.0461898 -19.0459 197.558
7.31288 -19.024099 197.332
7.4474401 -19.016899 197.258
7.5821199 -19.0103 197.189
7.9875102 -18.995001 197.03101
8.1227903 -18.990601 196.985
8.2592897 -18.989201 196.97
8.3965597 -18.9895 196.97301
8.5341902 -18.990601 196.985
8.6706696 -18.989201 196.97
8.8057499 -18.9848 196.925
8.9400101 -18.9788 196.862
9.0739899 -18.972401 196.79601
9.2091503 -18.968599 196.756
9.3463697 -18.969101 196.76199
9.4839001 -18.9702 196.77299
9.6190701 -18.9666 196.73599
9.7536697 -18.962 196.689
9.8857002 -18.9527 196.591
10.0155 -18.939301 196.453
10.1455 -18.926701 196.32201
10.4088 -18.908501 196.134
10.5399 -18.898701 196.03101
10.8048 -18.884701 195.88699
10.9405 -18.8836 195.875
11.0757 -18.881599 195.854
11.2104 -18.8787 195.82401
11.3483 -18.881399 195.85201
11.4878 -18.8866 195.90601
11.6261 -18.8897 195.938
11.7648 -18.893499 195.97701
11.9034 -18.896799 196.01199
12.1833 -18.9077 196.125
12.3254 -18.916201 196.213
12.4719 -18.931299 196.37
12.7594 -18.9522 196.586
12.9047 -18.9646 196.715
13.1983 -18.993 197.00999
13.4898 -19.0172 197.261
13.6308 -19.022301 197.314
13.7714 -19.026899 197.36099
13.9124 -19.0317 197.411
14.0574 -19.042101 197.519
14.2013 -19.0506 197.608
14.339 -19.0508 197.60899
14.6249 -19.0648 197.755
14.773 -19.0783 197.895
14.9197 -19.089701 198.013
2.1594701 -19.4893 203.629
2.4386101 -19.454399 203.265
2.5766499 -19.428301 202.992
2.7140501 -19.400299 202.69901
2.8505499 -19.368999 202.37199
3.12377 -19.3162 201.82001
3.2592299 -19.2864 201.509
3.39464 -19.258801 201.22
3.79739 -19.170401 200.297
3.93154 -19.144699 200.028
4.0652699 -19.118799 199.757
4.4647598 -19.043301 198.96899
4.86482 -18.982901 198.338
5.1311002 -18.946501 197.957
5.40131 -18.9275 197.759
5.5370598 -18.921 197.69099
5.67348 -18.916901 197.649
6.0857 -18.915199 197.631
6.2234201 -18.9156 197.63499
6.3612299 -18.9163 197.642
6.4998698 -18.9193 197.674
6.6363602 -18.916201 197.64101
6.7691698 -18.9028 197.50101
6.9024901 -18.891399 197.382
7.03685 -18.8832 197.297
7.1707001 -18.874001 197.2
7.30516 -18.866699 197.12399
7.5755701 -18.8566 197.019
7.71103 -18.852501 196.976
7.8457298 -18.846701 196.91499
7.98105 -18.842501 196.871
8.1175299 -18.8412 196.85699
8.2545099 -18.841101 196.856
8.3915396 -18.841 196.856
8.8004198 -18.836201 196.80499
8.9337101 -18.8284 196.724
9.0665398 -18.819799 196.634
9.2025404 -18.818001 196.61501
9.3390903 -18.8174 196.60899
9.4766502 -18.818701 196.623
9.6113005 -18.8144 196.577
9.7447395 -18.8078 196.509
9.8760204 -18.7973 196.399
10.0052 -18.783001 196.25
10.1354 -18.7712 196.12601
10.2656 -18.759701 196.006
10.5279 -18.7407 195.808
10.6593 -18.732201 195.71899
10.7926 -18.7271 195.66499
11.1974 -18.7206 195.59801
11.3348 -18.7227 195.619
11.751 -18.7349 195.746
11.8916 -18.741699 195.81799
12.0314 -18.747101 195.87399
12.1725 -18.754499 195.951
12.3152 -18.764 196.05099
12.4589 -18.7749 196.16499
12.6025 -18.785299 196.274
12.7447 -18.7936 196.36099
12.8881 -18.8034 196.46201
13.0303 -18.8113 196.545
13.1779 -18.826599 196.705
13.4702 -18.8524 196.974
13.6157 -18.864 197.09599
13.7553 -18.8673 197.13
13.8983 -18.875099 197.21201
14.0436 -18.8859 197.325
14.1879 -18.8951 197.42101
14.3299 -18.9011 197.48399
14.4736 -18.909201 197.56799
14.6188 -18.919201 197.673
14.7672 -18.9331 197.817
14.9137 -18.944201 197.93401
15.0593 -18.954 198.036
15.2057 -18.964701 198.14799
15.3516 -18.974501 198.25
1.87549 -19.342699 203.578
2.0165601 -19.336399 203.51199
2.15607 -19.316999 203.30901
2.4342201 -19.278 202.89799
2.5720401 -19.252399 202.62801
2.7090399 -19.2236 202.325
2.9826801 -19.171801 201.78
3.1189899 -19.1462 201.511
3.2542701 -19.116899 201.202
3.7918701 -19.0033 200.006
3.92541 -18.9758 199.717
4.4568601 -18.871201 198.617
4.5893302 -18.847401 198.366
4.8552599 -18.807699 197.948
5.1238799 -18.782101 197.679
5.39359 -18.762899 197.47701
5.5294399 -18.757401 197.41901
5.6660199 -18.754601 197.38901
5.8024602 -18.7514 197.356
5.9407001 -18.754101 197.384
6.079 -18.756901 197.41299
6.2165899 -18.757299 197.418
6.3538499 -18.7568 197.41299
6.4909301 -18.7558 197.40199
6.7604599 -18.7411 197.24699
6.8951702 -18.733999 197.173
7.0299501 -18.7274 197.103
7.1637301 -18.718399 197.008
7.29919 -18.7141 196.963
7.4342098 -18.708799 196.908
7.5703402 -18.706499 196.883
7.70577 -18.7026 196.841
7.8407898 -18.6978 196.791
7.9772301 -18.6964 196.77699
8.11413 -18.696199 196.77499
8.2511501 -18.696301 196.776
8.3881102 -18.696301 196.77499
8.5245504 -18.695101 196.763
8.6601896 -18.6922 196.73199
8.79531 -18.688299 196.69099
8.9281702 -18.6798 196.60201
9.0599804 -18.669399 196.492
9.1967297 -18.6693 196.491
9.3338804 -18.67 196.49899
9.4698296 -18.668301 196.481
9.6032495 -18.6618 196.41299
9.73631 -18.6548 196.338
9.8660498 -18.641701 196.201
9.9950104 -18.627501 196.05099
10.2558 -18.6054 195.819
10.386 -18.5944 195.703
10.6496 -18.579 195.541
10.7823 -18.573 195.47701
10.9157 -18.568501 195.42999
11.0496 -18.564899 195.39301
11.1861 -18.565599 195.39999
11.3241 -18.568899 195.435
11.4641 -18.5753 195.502
11.6021 -18.5783 195.534
11.74 -18.5811 195.563
11.8809 -18.588499 195.64101
12.0208 -18.594299 195.702
12.162 -18.6019 195.782
12.3055 -18.612801 195.897
12.4478 -18.6217 195.99001
12.591 -18.631701 196.095
12.7332 -18.639999 196.183
12.8741 -18.646299 196.24899
13.0164 -18.6544 196.334
13.162 -18.667 196.467
13.3102 -18.6831 196.63699
13.4557 -18.695101 196.763
13.744 -18.7146 196.968
13.8878 -18.7236 197.063
14.0345 -18.7363 197.196
14.1794 -18.7463 197.302
14.3236 -18.755301 197.397
14.4703 -18.767401 197.524
14.6164 -18.7784 197.63901
14.7654 -18.7929 197.79201
14.9096 -18.801201 197.879
15.0559 -18.8118 197.991
15.2032 -18.8235 198.11501
15.3461 -18.8297 198.17999
15.495 -18.843 198.319
15.6471 -18.8599 198.498
15.7998 -18.877199 198.679
1.87299 -19.175301 203.30701
2.0132799 -19.163401 203.181
2.2918999 -19.1278 202.804
2.4298 -19.101999 202.53
2.56672 -19.071699 202.209
2.9776399 -18.9991 201.439
3.1134701 -18.9723 201.155
3.2488101 -18.944901 200.86501
3.5155599 -18.875601 200.129
3.65206 -18.861 199.97501
3.7862501 -18.836 199.71001
3.91921 -18.8069 199.401
4.0521998 -18.7799 199.11501
4.4498 -18.703199 198.302
4.84729 -18.6392 197.623
5.1173501 -18.6206 197.427
5.25246 -18.6124 197.339
5.3877902 -18.605301 197.26401
5.66014 -18.597799 197.18401
5.7964301 -18.594601 197.151
5.9335899 -18.594299 197.14799
6.0715499 -18.5965 197.17101
6.2088399 -18.5966 197.172
6.3452501 -18.594101 197.145
6.4807801 -18.589199 197.093
6.6164098 -18.584801 197.047
6.88798 -18.577299 196.967
7.02316 -18.572201 196.91299
7.1573901 -18.5648 196.834
7.2940102 -18.5637 196.823
7.4301801 -18.5616 196.80099
7.5653901 -18.557199 196.754
7.7014098 -18.554899 196.73
7.8372502 -18.552299 196.702
7.9736199 -18.551001 196.688
8.11096 -18.551901 196.698
8.2480001 -18.5522 196.701
8.3850298 -18.552401 196.703
8.5212202 -18.5508 196.686
8.6553898 -18.544901 196.623
8.7898703 -18.539801 196.569
8.9217501 -18.529499 196.46001
9.0539398 -18.5201 196.36099
9.1900301 -18.5189 196.34801
9.32722 -18.519899 196.35899
9.4619398 -18.5161 196.31799
9.5963802 -18.511801 196.272
9.7271099 -18.5005 196.153
9.8568497 -18.4877 196.01801
9.9857903 -18.473801 195.87
10.1161 -18.462799 195.75301
10.247 -18.4531 195.64999
10.377 -18.4422 195.535
10.5078 -18.432699 195.43401
10.6387 -18.4238 195.34
10.7723 -18.4198 195.297
11.0392 -18.4114 195.20799
11.1751 -18.4114 195.20799
11.313 -18.4146 195.242
11.4518 -18.4193 195.29201
11.592 -18.4261 195.364
11.731 -18.4307 195.41299
11.8712 -18.437201 195.48199
12.0115 -18.4436 195.55
12.1533 -18.452299 195.64101
12.4377 -18.4702 195.832
12.581 -18.480499 195.94
12.7221 -18.4872 196.01199
12.8635 -18.494301 196.08701
13.0062 -18.503099 196.181
13.1483 -18.5109 196.263
13.2946 -18.524401 196.40601
13.4421 -18.5392 196.563
13.589 -18.552999 196.709
13.7344 -18.5644 196.83
13.8793 -18.5749 196.942
14.0278 -18.590099 197.103
14.1753 -18.6035 197.245
14.3212 -18.6147 197.364
14.4688 -18.627899 197.50301
14.6145 -18.6383 197.614
14.763 -18.652201 197.761
14.9059 -18.658701 197.83
15.0533 -18.6707 197.957
15.2023 -18.684401 198.103
15.3439 -18.6889 198.151
15.4918 -18.701 198.278
15.6426 -18.716299 198.44099
15.793 -18.730801 198.595
15.9464 -18.7486 198.783
16.1036 -18.7705 199.015
16.255501 -18.785999 199.17999
1.7302901 -19.0208 203.16901
2.0100501 -18.9914 202.856
2.2876999 -18.951799 202.43201
2.4252701 -18.9256 202.153
2.56198 -18.895901 201.836
2.97188 -18.8223 201.049
3.1075001 -18.796 200.769
3.2428999 -18.7708 200.49899
3.3773701 -18.7425 200.19701
3.64552 -18.6882 199.617
3.7794299 -18.6632 199.35001
3.91242 -18.6357 199.056
4.0453901 -18.6099 198.78
4.1777501 -18.583099 198.494
4.3103299 -18.559 198.237
4.4427199 -18.535601 197.987
4.7077298 -18.4937 197.53999
4.8415098 -18.4795 197.388
4.9758601 -18.4681 197.26601
5.1122799 -18.4648 197.231
5.3840799 -18.4552 197.12801
5.5195498 -18.449301 197.06599
5.65592 -18.446699 197.037
5.7918301 -18.442699 196.994
5.9283099 -18.440599 196.972
6.06458 -18.438 196.94501
6.3378901 -18.4354 196.91701
6.4737401 -18.4319 196.879
6.6099601 -18.429501 196.854
6.74682 -18.4291 196.849
6.88272 -18.426001 196.817
7.0184798 -18.422701 196.782
7.1536198 -18.417999 196.731
7.2895198 -18.4153 196.702
7.4260602 -18.414301 196.692
7.5622702 -18.4126 196.673
7.6976299 -18.408899 196.633
7.8340001 -18.4077 196.62
7.9714398 -18.409 196.634
8.1087303 -18.409901 196.644
8.2456198 -18.409901 196.644
8.3822002 -18.409201 196.63699
8.5174103 -18.4055 196.59801
8.65098 -18.3985 196.52299
8.78269 -18.387899 196.409
8.9147501 -18.378201 196.306
9.0474396 -18.370199 196.22
9.1843996 -18.370899 196.228
9.3209801 -18.3708 196.22701
9.4539804 -18.3638 196.15199
9.5882196 -18.3594 196.105
9.7199402 -18.350401 196.008
9.84904 -18.3367 195.862
9.9789801 -18.3249 195.737
10.1089 -18.3134 195.614
10.2388 -18.3022 195.493
10.369 -18.2918 195.383
10.4995 -18.2822 195.28101
10.6308 -18.2742 195.19501
10.763 -18.2679 195.127
10.8961 -18.2633 195.078
11.0299 -18.260099 195.04401
11.1656 -18.26 195.043
11.3046 -18.264999 195.097
11.4418 -18.267401 195.12199
11.5815 -18.2735 195.187
11.7225 -18.281401 195.272
11.8619 -18.2868 195.33
12.0024 -18.2936 195.40199
12.1448 -18.3032 195.505
12.2873 -18.312799 195.60699
12.4294 -18.321501 195.7
12.5725 -18.331499 195.80701
12.7123 -18.336599 195.86099
12.8545 -18.3449 195.95
12.9963 -18.352501 196.03101
13.1364 -18.357599 196.08501
13.2825 -18.3708 196.22701
13.4273 -18.382 196.347
13.7231 -18.4121 196.668
13.8708 -18.4265 196.821
14.0208 -18.443501 197.004
14.1714 -18.4611 197.19099
14.3196 -18.475201 197.342
14.4656 -18.4862 197.459
14.6129 -18.498699 197.593
14.7596 -18.510201 197.716
14.9032 -18.517599 197.79401
15.0514 -18.5305 197.93201
15.2016 -18.5457 198.095
15.3419 -18.5485 198.125
15.489 -18.5595 198.242
15.6394 -18.5742 198.39999
15.7881 -18.5867 198.533
15.9439 -18.607201 198.752
16.097799 -18.625299 198.94501
16.2477 -18.6383 199.084
16.405001 -18.659599 199.312
1.4465899 -18.8685 203.054
1.72745 -18.848301 202.83701
2.00617 -18.8137 202.464
2.2829101 -18.771299 202.008
2.4198899 -18.743099 201.70399
2.5571101 -18.7197 201.452
2.96578 -18.6439 200.63699
3.1010001 -18.617201 200.349
3.2364299 -18.594 200.099
3.37095 -18.5676 199.81599
3.6387999 -18.514999 199.24899
3.7724299 -18.490101 198.981
3.9054899 -18.464199 198.703
4.0381598 -18.4384 198.425
4.1698298 -18.409901 198.118
4.3027501 -18.3885 197.888
4.5686302 -18.3498 197.47099
4.7026701 -18.336399 197.328
4.8372898 -18.326 197.215
5.1087999 -18.315001 197.097
5.2451701 -18.312 197.065
5.38024 -18.3048 196.98801
5.51612 -18.300699 196.94299
5.6523099 -18.297701 196.911
5.9235401 -18.2887 196.814
6.0594702 -18.2854 196.77901
6.1953402 -18.282101 196.743
6.3315802 -18.280001 196.72099
6.4681902 -18.2791 196.711
6.6045098 -18.277399 196.692
6.7417402 -18.2782 196.701
6.87852 -18.2778 196.696
7.1505499 -18.2731 196.646
7.2864199 -18.2705 196.619
7.4224 -18.268299 196.595
7.5587001 -18.267 196.58
7.69519 -18.2661 196.571
7.8322101 -18.2665 196.576
7.9704299 -18.269699 196.60899
8.1071796 -18.2694 196.606
8.2434902 -18.2682 196.593
8.3790998 -18.2654 196.564
8.5131102 -18.259399 196.49899
8.6447096 -18.2484 196.381
8.7771797 -18.239599 196.286
8.9094601 -18.2307 196.19
9.0444899 -18.2276 196.15601
9.1813602 -18.228201 196.16299
9.3137798 -18.2201 196.076
9.4458599 -18.211599 195.98399
9.5785799 -18.2045 195.908
9.7107496 -18.1966 195.823
9.8417501 -18.1868 195.717
9.9725103 -18.1768 195.61
10.1029 -18.1665 195.49899
10.2329 -18.1555 195.381
10.3627 -18.144699 195.26401
10.4925 -18.134199 195.151
10.6232 -18.125299 195.056
10.755 -18.118601 194.98399
11.0206 -18.108999 194.88
11.1568 -18.1098 194.88901
11.2949 -18.113701 194.931
11.4337 -18.118601 194.983
11.5742 -18.125999 195.063
11.7141 -18.1325 195.133
11.8518 -18.135201 195.162
11.9932 -18.1437 195.25301
12.2796 -18.1651 195.48399
12.4233 -18.176201 195.604
12.5644 -18.1835 195.68201
12.7021 -18.185499 195.703
12.8423 -18.191099 195.76401
12.985 -18.200199 195.86099
13.1235 -18.2031 195.89301
13.2684 -18.214899 196.019
13.4134 -18.2264 196.144
13.5596 -18.239401 196.284
13.7057 -18.2519 196.41901
13.8522 -18.2649 196.55701
14.0017 -18.2815 196.73599
14.1621 -18.311701 197.062
14.4608 -18.3426 197.394
14.6106 -18.3582 197.562
14.7567 -18.368799 197.67599
14.9005 -18.376499 197.759
15.0492 -18.389999 197.90401
15.1998 -18.4055 198.071
15.3406 -18.408899 198.108
15.487 -18.4191 198.217
15.6356 -18.431601 198.35201
15.7842 -18.4438 198.483
15.9408 -18.465099 198.713
16.0923 -18.480301 198.87601
16.2395 -18.4902 198.983
16.3941 -18.5084 199.17799
16.555599 -18.534 199.45399
16.717899 -18.559999 199.73399
17.0753 -18.646601 200.666
1.4449199 -18.7055 202.819
1.58506 -18.693001 202.685
2.0021701 -18.6355 202.061
2.4146399 -18.562201 201.26601
2.55144 -18.5382 201.006
2.6877201 -18.513 200.733
2.95961 -18.4657 200.22
3.0947001 -18.4401 199.942
3.2297299 -18.416401 199.685
3.36414 -18.391199 199.412
3.6319499 -18.3416 198.87399
3.76528 -18.3167 198.604
3.89802 -18.2908 198.323
4.0311899 -18.2686 198.08299
4.1637802 -18.245399 197.83099
4.29672 -18.2251 197.61099
4.4296899 -18.2062 197.40601
4.5641398 -18.1943 197.27699
4.69835 -18.182199 197.146
4.97052 -18.1738 197.054
5.1065202 -18.1696 197.009
5.2420702 -18.164 196.94901
5.37713 -18.157101 196.87399
5.5123301 -18.150999 196.808
5.64819 -18.147301 196.76801
5.7833099 -18.1415 196.705
5.9191699 -18.138201 196.66901
6.0549598 -18.1348 196.632
6.1909399 -18.1322 196.604
6.3269701 -18.129801 196.577
6.4636402 -18.129299 196.57201
6.6006999 -18.1299 196.57899
6.7381301 -18.1315 196.59599
6.8755598 -18.132999 196.612
7.0118399 -18.131399 196.595
7.1471601 -18.127501 196.55299
7.2834001 -18.126101 196.537
7.4193201 -18.1238 196.513
7.5556502 -18.1227 196.50101
7.6928201 -18.1236 196.511
7.8295298 -18.1234 196.508
7.9678001 -18.126801 196.545
8.1054201 -18.1285 196.564
8.2423296 -18.1287 196.56599
8.3762102 -18.122299 196.496
8.5073204 -18.110201 196.36501
8.6387997 -18.0993 196.246
8.9038801 -18.082701 196.067
9.0387402 -18.079399 196.03101
9.1749201 -18.078899 196.02499
9.3067303 -18.069799 195.927
9.5693598 -18.050699 195.71899
9.7012901 -18.042601 195.632
9.8347397 -18.0376 195.578
9.9661598 -18.028999 195.485
10.0965 -18.018801 195.37399
10.2274 -18.009899 195.27699
10.3575 -17.999599 195.166
10.4874 -17.9893 195.054
10.6173 -17.979401 194.94701
10.7487 -17.9722 194.869
10.8808 -17.966299 194.80499
11.0138 -17.962 194.758
11.1494 -17.962099 194.759
11.2865 -17.9645 194.785
11.4253 -17.969601 194.84
11.5668 -17.9786 194.939
11.843 -17.985901 195.017
11.9836 -17.993299 195.097
12.1273 -18.0049 195.224
12.2715 -18.017099 195.356
12.4144 -18.0271 195.464
12.5528 -18.030399 195.5
12.6884 -18.029699 195.492
12.8281 -18.0348 195.547
12.9692 -18.0418 195.623
13.1061 -18.042801 195.634
13.2472 -18.0495 195.70599
13.3921 -18.0611 195.83299
13.5378 -18.0735 195.967
13.8294 -18.098101 196.23399
13.9738 -18.108299 196.34399
14.1394 -18.1453 196.745
14.2975 -18.172199 197.03799
14.6015 -18.2092 197.439
14.7486 -18.2211 197.567
14.8935 -18.230101 197.666
15.0443 -18.246099 197.839
15.1951 -18.261801 198.009
15.338 -18.2679 198.075
15.4843 -18.2778 198.183
15.6291 -18.285801 198.269
15.7769 -18.2971 198.392
15.9307 -18.315201 198.588
16.080999 -18.328899 198.73599
16.2272 -18.337799 198.83299
16.3794 -18.353201 199
16.5376 -18.375099 199.237
16.693399 -18.3939 199.44099
16.8452 -18.408001 199.59399
17.1527 -18.439899 199.94
17.436001 -18.445101 199.996
1.58182 -18.514 202.271
1.99752 -18.451799 201.591
2.1347799 -18.4252 201.30099
2.54533 -18.354099 200.524
2.68137 -18.3298 200.259
3.08845 -18.263901 199.539
3.2230699 -18.239599 199.27299
3.3575499 -18.2166 199.022
3.62503 -18.1684 198.495
3.7581601 -18.143999 198.229
3.8912101 -18.120899 197.97701
4.0250702 -18.1031 197.782
4.1584001 -18.0842 197.575
4.2915802 -18.0658 197.37399
4.4260402 -18.053801 197.243
4.56042 -18.0422 197.116
4.6954198 -18.033701 197.02299
4.8322501 -18.0324 197.00999
4.96912 -18.031401 196.99899
5.1045699 -18.025499 196.93401
5.2392702 -18.0172 196.84399
5.5096898 -18.005301 196.713
5.6436801 -17.995899 196.61099
5.77808 -17.988199 196.52699
5.9138198 -17.9849 196.491
6.0497899 -17.9825 196.464
6.18612 -17.9813 196.451
6.32269 -17.9807 196.44501
6.4601402 -17.982599 196.466
6.5978498 -17.985201 196.494
6.7352099 -17.9867 196.50999
6.8724899 -17.988001 196.524
7.0087199 -17.9865 196.508
7.1440401 -17.9828 196.467
7.28087 -17.982901 196.46899
7.41711 -17.9816 196.455
7.5536799 -17.981199 196.45
7.6907201 -17.9818 196.457
7.8284898 -17.9841 196.48199
7.96596 -17.985701 196.49899
8.1025696 -17.9853 196.495
8.2381201 -17.982599 196.465
8.36936 -17.970699 196.33501
8.4990702 -17.955999 196.174
8.7638197 -17.938801 195.987
8.8970203 -17.932301 195.916
9.0325098 -17.9305 195.896
9.1667299 -17.9263 195.85001
9.2970695 -17.9147 195.724
9.4278202 -17.904301 195.61
9.5598297 -17.8965 195.52499
9.6928396 -17.8908 195.46201
9.8261604 -17.885799 195.407
9.9590797 -17.880199 195.34599
10.0919 -17.874599 195.285
10.2229 -17.8659 195.19
10.353 -17.8559 195.08099
10.4832 -17.8463 194.976
10.6123 -17.8353 194.855
10.7427 -17.8265 194.75999
10.8749 -17.820999 194.7
11.0071 -17.815701 194.64101
11.1418 -17.814301 194.62601
11.2794 -17.817699 194.664
11.4168 -17.820499 194.69501
11.5563 -17.8267 194.76199
11.6963 -17.8335 194.836
11.8347 -17.837601 194.881
11.9736 -17.8424 194.933
12.1151 -17.851 195.028
12.2593 -17.863199 195.161
12.3957 -17.864 195.16901
12.5333 -17.866501 195.196
12.671 -17.868999 195.224
12.8087 -17.871599 195.252
12.9451 -17.872101 195.258
13.0812 -17.8724 195.26199
13.2211 -17.8778 195.32001
13.3623 -17.8848 195.397
13.5068 -17.896 195.519
13.652 -17.9079 195.649
13.9482 -17.938499 195.98399
14.1021 -17.9608 196.228
14.2669 -17.9963 196.61501
14.4276 -18.0261 196.94
14.5779 -18.0425 197.12
14.7322 -18.0634 197.34801
14.884 -18.0809 197.539
15.0329 -18.094601 197.689
15.1802 -18.106199 197.81599
15.3261 -18.1159 197.922
15.6143 -18.1306 198.082
15.7571 -18.1362 198.14301
15.9069 -18.1497 198.291
16.0564 -18.162701 198.433
16.1992 -18.167801 198.489
16.3556 -18.188101 198.71001
16.5105 -18.2064 198.91
17.364599 -18.2309 199.17799
1.71663 -18.309099 201.56599
2.26631 -18.215799 200.539
2.4025099 -18.190001 200.255
2.67521 -18.1485 199.799
2.8114901 -18.1304 199.599
3.0823801 -18.0893 199.146
3.2170701 -18.067101 198.90199
3.35184 -18.047199 198.683
3.4856801 -18.024099 198.429
3.61975 -18.003901 198.20599
3.7532799 -17.9825 197.97099
3.88662 -17.9618 197.743
4.0211101 -17.947701 197.58701
4.1540999 -17.927999 197.371
4.2881198 -17.9139 197.215
4.4225602 -17.902399 197.088
4.5578399 -17.8948 197.005
4.6937799 -17.8902 196.955
4.8313699 -17.892 196.974
4.9681602 -17.8908 196.961
5.1029501 -17.882601 196.871
5.2364302 -17.870399 196.737
5.3706598 -17.861401 196.63699
5.5050998 -17.853399 196.549
5.7732801 -17.8365 196.36301
5.9088001 -17.832899 196.32401
6.0455298 -17.833099 196.326
6.1822901 -17.833401 196.32899
6.3192501 -17.8342 196.338
6.4575 -17.838499 196.386
6.59554 -17.8421 196.425
6.7322698 -17.8421 196.425
6.8691802 -17.842501 196.429
7.0051498 -17.8405 196.408
7.1412401 -17.8389 196.39
7.2784801 -17.8402 196.40401
7.41506 -17.839899 196.39999
7.5520802 -17.840599 196.408
7.6891298 -17.841299 196.416
7.8251901 -17.8398 196.399
8.2308502 -17.83 196.29201
8.3601503 -17.814301 196.119
8.4905195 -17.801399 195.97701
8.6246099 -17.7966 195.924
8.7581301 -17.7908 195.86
8.8919096 -17.785601 195.80299
9.1575403 -17.7721 195.65401
9.2884502 -17.7619 195.54201
9.4188099 -17.751101 195.423
9.5504103 -17.7428 195.332
9.6835098 -17.737499 195.274
9.8168602 -17.732901 195.222
10.0845 -17.725599 195.14301
10.217 -17.719801 195.078
10.3488 -17.712799 195.00101
10.4795 -17.704399 194.909
10.6085 -17.6931 194.785
10.7381 -17.6833 194.67599
10.8704 -17.677999 194.618
11.1346 -17.667299 194.5
11.2703 -17.6677 194.505
11.4086 -17.672199 194.554
11.6875 -17.684401 194.689
11.8256 -17.688299 194.731
11.9634 -17.6915 194.767
12.1041 -17.6991 194.85001
12.2446 -17.7061 194.927
12.3802 -17.7059 194.925
12.5151 -17.7047 194.91299
12.6495 -17.7029 194.89301
12.7843 -17.701799 194.881
12.92 -17.701799 194.88
13.0564 -17.702801 194.892
13.1932 -17.7043 194.908
13.3307 -17.706699 194.93401
13.4734 -17.716 195.036
13.613 -17.7209 195.09
13.7587 -17.7337 195.23199
14.059 -17.7696 195.627
14.219 -17.7995 195.95599
14.5445 -17.864201 196.668
14.7049 -17.8927 196.98199
15.0112 -17.931101 197.40401
15.1564 -17.940201 197.505
15.2989 -17.9461 197.57001
15.7277 -17.9646 197.77299
15.8716 -17.9716 197.851
16.016701 -17.979799 197.94099
16.158001 -17.9837 197.98399
16.3146 -18.004499 198.213
16.472099 -18.0259 198.448
16.624001 -18.0408 198.612
17.0371 -18.0389 198.592
17.1724 -18.0359 198.558
17.310801 -18.035999 198.56
17.451401 -18.0385 198.588
17.595501 -18.0445 198.653
17.7384 -18.0492 198.705
17.887699 -18.060301 198.827
18.037001 -18.071199 198.94701
2.8053401 -17.952101 199.16299
3.0768199 -17.9182 198.787
3.2121899 -17.9014 198.60001
3.3475299 -17.885799 198.42799
3.4818399 -17.866199 198.21001
3.61586 -17.8466 197.993
3.7499399 -17.8288 197.795
3.88376 -17.811001 197.59801
4.0177598 -17.7952 197.423
4.1513901 -17.7789 197.242
4.2855501 -17.7659 197.097
4.42031 -17.756001 196.98801
4.5564799 -17.7523 196.946
4.6930599 -17.750299 196.924
4.8301802 -17.750401 196.925
4.96592 -17.7456 196.87199
5.23312 -17.7222 196.61301
5.36654 -17.7108 196.48599
5.49998 -17.7001 196.367
5.6339898 -17.691601 196.27299
5.7686701 -17.6856 196.207
5.9047098 -17.684 196.188
6.0419502 -17.6859 196.21001
6.1793699 -17.688299 196.23599
6.3167701 -17.6905 196.261
6.4545598 -17.693701 196.29601
6.5922399 -17.6964 196.327
6.7291098 -17.696899 196.332
6.8656802 -17.696699 196.32899
7.0019598 -17.6957 196.31799
7.1396699 -17.698299 196.347
7.27704 -17.6999 196.36501
7.4131198 -17.6984 196.349
7.55058 -17.700199 196.369
7.6874499 -17.7006 196.373
7.8220501 -17.6959 196.32001
7.9551201 -17.687799 196.23199
8.0875502 -17.678699 196.13
8.3505001 -17.657301 195.89301
8.4851103 -17.6537 195.85201
8.6197901 -17.650299 195.814
8.7531099 -17.644199 195.74699
8.8868999 -17.639299 195.69299
9.0211802 -17.6355 195.651
9.1502504 -17.6217 195.498
9.2780104 -17.6059 195.323
9.4076796 -17.594101 195.192
9.6726599 -17.5818 195.05499
9.8063097 -17.577999 195.01199
9.9398899 -17.5741 194.97
10.0744 -17.5721 194.94701
10.2086 -17.5693 194.91701
10.3421 -17.565701 194.877
10.4746 -17.5604 194.81799
10.6052 -17.552099 194.72501
10.7357 -17.5438 194.633
10.8673 -17.5376 194.564
10.9988 -17.5312 194.494
11.1294 -17.5236 194.409
11.2616 -17.518801 194.356
11.3977 -17.52 194.37
11.5377 -17.5271 194.44901
11.6777 -17.534 194.52499
11.8167 -17.5394 194.58501
11.9544 -17.542601 194.62
12.094 -17.548599 194.687
12.2314 -17.551399 194.718
12.3661 -17.5502 194.70399
12.497 -17.5436 194.631
12.6302 -17.5404 194.59599
12.7635 -17.537399 194.562
12.8962 -17.533701 194.521
13.0318 -17.534 194.52499
13.1672 -17.533899 194.524
13.3027 -17.5341 194.526
13.4406 -17.537201 194.561
13.582 -17.545 194.647
13.725 -17.554501 194.752
13.8668 -17.562401 194.84
14.0093 -17.570999 194.936
14.1605 -17.5903 195.149
15.1202 -17.760099 197.033
15.2649 -17.7689 197.131
15.4058 -17.7731 197.177
15.5448 -17.775101 197.19901
15.6842 -17.777599 197.22701
15.9723 -17.792601 197.394
16.120701 -17.804701 197.52699
16.4338 -17.8461 197.987
16.5916 -17.867599 198.226
17.007999 -17.8701 198.25301
17.143499 -17.867399 198.224
17.2787 -17.864599 198.192
17.423 -17.871 198.26401
17.5637 -17.873699 198.29401
17.7054 -17.877501 198.336
17.854099 -17.8881 198.45399
18.0058 -17.9016 198.603
18.173901 -17.931101 198.92999
3.0722499 -17.7533 198.492
3.34376 -17.7276 198.20399
3.61185 -17.6891 197.77299
3.7463 -17.6738 197.603
3.8808899 -17.660299 197.452
4.01478 -17.6446 197.27699
4.14815 -17.6278 197.088
4.28332 -17.6194 196.994
4.4184799 -17.6115 196.90601
4.5552502 -17.6103 196.89301
4.69134 -17.606701 196.85201
4.8273001 -17.602699 196.808
5.0942101 -17.578199 196.534
5.3615799 -17.557699 196.304
5.4951601 -17.547899 196.19501
5.7651401 -17.5382 196.086
5.9018798 -17.5389 196.09399
6.0391002 -17.540899 196.117
6.1760101 -17.542 196.129
6.3140998 -17.5464 196.17799
6.8629899 -17.552999 196.252
6.9995098 -17.552799 196.25
7.41119 -17.5571 196.298
7.5481901 -17.557899 196.30701
7.6829801 -17.5536 196.259
7.8159499 -17.545401 196.16701
7.94805 -17.535601 196.05701
8.2119503 -17.516199 195.841
8.3450003 -17.5093 195.76401
8.4806204 -17.507999 195.74899
8.6155996 -17.505301 195.71899
8.7476101 -17.496901 195.62399
8.8811703 -17.491699 195.567
9.0119495 -17.4813 195.45
9.1402798 -17.466499 195.285
9.3978596 -17.439899 194.98801
9.5287905 -17.4312 194.89
9.6616001 -17.426001 194.832
9.9299402 -17.4209 194.77499
10.0645 -17.419001 194.754
10.1982 -17.4158 194.718
10.3334 -17.4153 194.71201
10.4683 -17.414301 194.701
10.6013 -17.410101 194.65401
10.7331 -17.4039 194.58501
10.8643 -17.3972 194.50999
10.9945 -17.388901 194.418
11.1245 -17.3806 194.325
11.2556 -17.374201 194.252
11.5287 -17.378201 194.298
11.6682 -17.384399 194.367
11.8069 -17.3894 194.423
11.9454 -17.393999 194.47501
12.0832 -17.397499 194.51401
12.2186 -17.397499 194.51401
12.3512 -17.3936 194.46899
12.4816 -17.386499 194.39101
12.7453 -17.3771 194.286
12.8783 -17.3741 194.252
13.0133 -17.3738 194.24899
13.1489 -17.3743 194.254
13.2831 -17.3729 194.23801
13.4211 -17.376499 194.278
13.5599 -17.3811 194.33
13.6985 -17.3853 194.377
13.8395 -17.3925 194.457
13.9791 -17.3976 194.515
14.1214 -17.406099 194.61
14.4141 -17.432501 194.905
14.5735 -17.460899 195.222
14.7348 -17.490999 195.55901
14.8988 -17.5238 195.92599
15.3641 -17.5881 196.644
15.5047 -17.5923 196.69099
15.6434 -17.5942 196.713
15.7804 -17.594299 196.714
15.9279 -17.606001 196.84399
16.0779 -17.620199 197.00301
16.2218 -17.627501 197.08501
16.386999 -17.6576 197.422
16.552401 -17.687599 197.757
16.7012 -17.6994 197.88901
16.842199 -17.702801 197.927
17.2577 -17.705 197.951
17.539101 -17.7108 198.01601
17.827 -17.723 198.15199
17.975599 -17.7335 198.27
18.322901 -17.8027 199.04401
3.2042201 -17.580999 198.108
3.4748499 -17.554701 197.812
3.6087101 -17.535999 197.601
3.74278 -17.519699 197.41701
3.87778 -17.508699 197.29401
4.01156 -17.4932 197.118
4.1454601 -17.4792 196.96001
4.28125 -17.473801 196.899
4.41717 -17.4692 196.84801
4.5530901 -17.464899 196.8
4.68925 -17.4618 196.76401
4.8234901 -17.4519 196.653
4.9568 -17.439199 196.50999
5.2233 -17.4156 196.244
5.3573399 -17.4072 196.149
5.4914298 -17.399401 196.061
5.6264701 -17.394899 196.011
5.7622299 -17.392799 195.98801
5.89921 -17.3944 196.006
6.0358901 -17.3951 196.013
6.1740599 -17.3999 196.06799
6.3119102 -17.4037 196.11
6.4494901 -17.4065 196.142
6.5861201 -17.406799 196.144
6.7238202 -17.4097 196.17799
6.8601699 -17.409201 196.172
6.9966698 -17.409 196.17
7.13378 -17.410299 196.185
7.2716398 -17.413401 196.22
7.4081702 -17.4133 196.218
7.54282 -17.4088 196.16701
7.6747499 -17.3983 196.049
7.8065801 -17.387899 195.93201
7.9390802 -17.3794 195.836
8.0710297 -17.370001 195.73
8.3404598 -17.363501 195.657
8.4771299 -17.3645 195.668
8.6104498 -17.358601 195.60201
8.7420597 -17.3496 195.5
9.0009699 -17.323999 195.21201
9.25945 -17.2992 194.93201
9.3886299 -17.2871 194.797
9.52036 -17.2801 194.717
9.6528597 -17.274599 194.65601
9.7860699 -17.270599 194.61
9.9192801 -17.2666 194.565
10.0547 -17.2666 194.565
10.191 -17.268101 194.582
10.3246 -17.2649 194.54601
10.4598 -17.2645 194.541
10.7268 -17.2584 194.472
10.8573 -17.250601 194.38499
10.9883 -17.243799 194.308
11.1167 -17.233101 194.188
11.2481 -17.227301 194.123
11.3829 -17.226801 194.117
11.519 -17.2283 194.133
11.658 -17.233999 194.198
11.7951 -17.236799 194.229
12.0718 -17.245701 194.33
12.2069 -17.245399 194.327
12.336 -17.236799 194.23
12.466 -17.229601 194.14799
12.5979 -17.225201 194.09801
12.7287 -17.2194 194.033
12.8629 -17.2181 194.019
12.9991 -17.2197 194.036
13.135 -17.220699 194.048
13.5425 -17.2236 194.08
13.6826 -17.2299 194.15199
13.8208 -17.2337 194.194
13.9619 -17.240999 194.27699
14.1027 -17.247801 194.353
14.3874 -17.2647 194.543
14.5378 -17.2824 194.743
14.689 -17.3009 194.951
15.0001 -17.3468 195.468
15.3168 -17.3974 196.039
15.6083 -17.417999 196.272
15.7451 -17.418301 196.274
15.8901 -17.427401 196.377
16.035101 -17.436399 196.478
16.332899 -17.4624 196.771
16.502501 -17.496901 197.16
16.6714 -17.5303 197.536
16.817499 -17.5392 197.63699
16.963499 -17.547899 197.73399
17.1022 -17.549 197.74699
17.240299 -17.5494 197.752
17.379999 -17.5515 197.77499
17.5207 -17.554501 197.80901
17.6625 -17.558599 197.855
17.8074 -17.565599 197.93401
17.9513 -17.5716 198.002
18.0975 -17.5797 198.093
18.280001 -17.6227 198.578
18.5217 -17.721701 199.694
2.24508 -17.491699 198.661
2.51824 -17.467899 198.39
2.6547899 -17.4576 198.274
2.7916501 -17.4503 198.19099
2.92856 -17.444 198.119
3.0643599 -17.4319 197.98199
3.2005701 -17.4231 197.882
3.3361599 -17.4118 197.754
3.6054599 -17.3827 197.423
3.73963 -17.367599 197.25101
3.87482 -17.358 197.14301
4.0084 -17.342199 196.963
4.14358 -17.334101 196.871
4.27953 -17.329599 196.82001
4.4155402 -17.325701 196.77499
4.5513101 -17.3211 196.72301
4.6863298 -17.313999 196.642
4.8200698 -17.302601 196.513
5.0852799 -17.274099 196.189
5.2191801 -17.2652 196.089
5.3535199 -17.258301 196.009
5.4881501 -17.252501 195.944
5.6225901 -17.2465 195.87601
5.7590199 -17.2467 195.87801
5.8963399 -17.2495 195.91
6.0334501 -17.2516 195.93401
6.1715899 -17.256399 195.989
6.3097401 -17.261101 196.04201
6.4471998 -17.2638 196.07201
6.5839 -17.264299 196.078
6.7208099 -17.2654 196.09
6.8572502 -17.2652 196.088
6.99298 -17.2633 196.067
7.1285 -17.2609 196.03999
7.2641401 -17.2589 196.017
7.53196 -17.247299 195.88499
7.6649199 -17.239599 195.798
7.7978401 -17.2321 195.713
7.9316502 -17.226801 195.653
8.0655603 -17.221901 195.597
8.1998701 -17.218 195.55299
8.3368702 -17.219801 195.573
8.4726105 -17.219 195.564
8.6044397 -17.2104 195.466
8.8647404 -17.187401 195.205
9.1215601 -17.1593 194.88499
9.3795996 -17.135 194.60899
9.5114603 -17.1285 194.535
9.64466 -17.1245 194.49001
9.9112597 -17.1173 194.408
10.045 -17.114599 194.37801
10.18 -17.114 194.371
10.3151 -17.113701 194.368
10.4511 -17.114799 194.381
10.586 -17.114201 194.373
10.7188 -17.1101 194.327
10.8511 -17.1054 194.27299
10.9808 -17.096701 194.175
11.1098 -17.087299 194.067
11.2412 -17.0816 194.00301
11.3766 -17.082199 194.00999
11.5114 -17.0818 194.006
11.6483 -17.0844 194.035
11.7862 -17.0886 194.08299
11.922 -17.0895 194.093
12.0577 -17.090401 194.103
12.1918 -17.0889 194.086
12.3232 -17.083799 194.028
12.5865 -17.0746 193.923
12.7184 -17.070299 193.875
12.8513 -17.067699 193.845
12.9868 -17.068399 193.853
13.1224 -17.069099 193.862
13.257 -17.068701 193.85699
13.3929 -17.069901 193.87
13.5294 -17.071899 193.89301
13.6671 -17.075199 193.931
13.8081 -17.082701 194.015
13.9492 -17.090099 194.10001
14.0898 -17.096701 194.175
14.2311 -17.104099 194.259
14.3746 -17.113899 194.37
14.5201 -17.1259 194.507
14.669 -17.141701 194.685
14.82 -17.159599 194.88901
14.9774 -17.184601 195.173
15.1328 -17.206699 195.424
15.2877 -17.228001 195.666
15.5802 -17.250299 195.91901
15.72 -17.254 195.961
15.8608 -17.258801 196.015
16.005699 -17.2679 196.119
16.149099 -17.2752 196.202
16.2931 -17.283001 196.291
16.445101 -17.299299 196.47501
16.785101 -17.368 197.256
16.940599 -17.3867 197.468
17.082001 -17.3906 197.513
17.2234 -17.3946 197.558
17.364901 -17.3985 197.603
17.505899 -17.402 197.642
17.7903 -17.410999 197.744
17.9307 -17.413601 197.774
18.0769 -17.4219 197.868
18.4447 -17.509501 198.864
18.6731 -17.594299 199.826
18.842899 -17.6229 200.151
2.2411201 -17.322701 198.311
2.5146501 -17.305 198.10699
2.6514499 -17.297701 198.024
2.7882199 -17.291 197.94701
3.0611 -17.2756 197.771
3.19696 -17.2658 197.659
3.33248 -17.254999 197.536
3.4674301 -17.2423 197.38901
3.60166 -17.226999 197.215
3.7363801 -17.2152 197.07899
3.87148 -17.2059 196.97301
4.00559 -17.1929 196.825
4.1417298 -17.189301 196.783
4.2779102 -17.186001 196.746
4.4134002 -17.1803 196.67999
4.5486798 -17.174101 196.60899
4.68326 -17.165701 196.513
4.8163099 -17.1523 196.36
4.9490399 -17.138599 196.203
5.2154698 -17.116501 195.95
5.3498702 -17.110001 195.87601
5.4847102 -17.105301 195.82201
5.61941 -17.100401 195.765
5.7564998 -17.1028 195.793
5.8937302 -17.105499 195.823
6.0311899 -17.1087 195.86
6.16891 -17.112499 195.90401
6.3068199 -17.116699 195.952
6.44491 -17.121099 196.00301
6.5816202 -17.121799 196.00999
6.7182999 -17.1224 196.017
6.8545299 -17.121799 196.011
6.9893999 -17.117901 195.966
7.2578902 -17.1077 195.849
7.3898201 -17.0975 195.73199
7.5227199 -17.0898 195.644
7.6561198 -17.083599 195.573
7.79073 -17.0802 195.534
7.9267101 -17.079901 195.53101
8.06178 -17.0777 195.505
8.1959496 -17.0737 195.459
8.3329401 -17.0756 195.481
8.4675798 -17.072701 195.448
8.5979204 -17.0613 195.31799
8.72715 -17.0481 195.16701
8.9832697 -17.0186 194.828
9.2412796 -16.9942 194.549
9.3704996 -16.982901 194.42
9.50317 -16.9781 194.366
9.6369896 -16.9755 194.336
9.7698498 -16.9713 194.28799
9.9028196 -16.9674 194.243
10.0364 -16.964701 194.21201
10.1708 -16.963301 194.196
10.3051 -16.9618 194.179
10.4404 -16.962 194.181
10.5763 -16.9632 194.194
10.7111 -16.9625 194.186
10.8427 -16.957001 194.12399
10.9729 -16.949301 194.036
11.1041 -16.943399 193.967
11.2358 -16.9384 193.91
11.3697 -16.9368 193.892
12.0417 -16.932699 193.84599
12.1753 -16.930799 193.82401
12.3083 -16.9282 193.79401
12.4403 -16.9242 193.74899
12.5739 -16.9226 193.729
12.7086 -16.922199 193.726
12.8423 -16.9207 193.70799
12.9773 -16.9209 193.71001
13.1123 -16.9212 193.713
13.2478 -16.922001 193.72301
13.3832 -16.9226 193.73
13.5195 -16.9244 193.75
13.6561 -16.9265 193.77499
13.796 -16.9326 193.845
13.9379 -16.9412 193.942
14.0785 -16.9478 194.019
14.2213 -16.9571 194.12399
14.3629 -16.964701 194.21201
14.5091 -16.9776 194.35899
14.6577 -16.993099 194.537
14.8045 -17.0061 194.686
14.9568 -17.025101 194.903
15.1145 -17.049999 195.188
15.2741 -17.0765 195.492
15.4206 -17.0881 195.62399
15.561 -17.0926 195.67599
15.702 -17.0979 195.737
15.839 -17.0987 195.746
15.9811 -17.1049 195.817
16.125799 -17.1138 195.91901
16.2656 -17.117399 195.96001
16.407301 -17.1229 196.02299
16.7285 -17.172501 196.591
16.899599 -17.207399 196.99001
17.0557 -17.2265 197.209
17.208401 -17.242001 197.386
17.3503 -17.246401 197.437
17.4911 -17.249701 197.47501
17.633101 -17.254101 197.52499
17.774799 -17.2582 197.57201
17.9167 -17.2624 197.62
18.059401 -17.2673 197.67599
18.204599 -17.2745 197.758
18.375299 -17.305599 198.114
18.612101 -17.398001 199.172
18.803301 -17.4468 199.731
2.3747201 -17.152399 197.939
2.51175 -17.1472 197.879
2.78547 -17.1362 197.752
2.92207 -17.1299 197.67999
3.1930101 -17.107 197.41499
3.3285401 -17.0972 197.302
3.4637899 -17.0868 197.18201
3.59835 -17.073999 197.034
3.86866 -17.056299 196.82899
4.0030699 -17.045099 196.701
4.1396799 -17.0438 196.686
4.2759299 -17.0411 196.655
4.4106698 -17.032801 196.558
4.54598 -17.0271 196.492
4.6800299 -17.017099 196.37801
4.81212 -17.000799 196.189
4.9449201 -16.987801 196.039
5.0775399 -16.974899 195.89101
5.21245 -16.9702 195.836
5.3467498 -16.963699 195.761
5.6173401 -16.9578 195.69299
5.7542901 -16.9599 195.717
5.8914299 -16.9624 195.74699
6.16681 -16.970301 195.83701
6.3044901 -16.9739 195.879
6.4426599 -16.978701 195.93401
6.5794401 -16.9797 195.946
6.71525 -16.978201 195.92799
6.8494401 -16.9727 195.86501
6.9825401 -16.9648 195.774
7.1174898 -16.961599 195.737
7.2514601 -16.9562 195.675
7.3836598 -16.947001 195.569
7.5182099 -16.943399 195.52699
7.6533098 -16.941099 195.50101
7.7888899 -16.940001 195.48801
7.9245801 -16.939199 195.478
8.0595102 -16.9368 195.45
8.1939001 -16.9333 195.411
8.3292103 -16.931801 195.39301
8.5908899 -16.9114 195.158
8.8477802 -16.883101 194.83099
9.1044397 -16.8561 194.519
9.3635998 -16.8351 194.27699
9.49576 -16.829599 194.214
9.62885 -16.825899 194.17101
9.7627897 -16.823799 194.147
10.0288 -16.8167 194.065
10.1635 -16.816 194.05701
10.2974 -16.813999 194.034
10.4317 -16.812799 194.019
10.5668 -16.812901 194.021
10.7018 -16.8127 194.019
10.8342 -16.8085 193.97
10.9656 -16.803101 193.908
11.0987 -16.8001 193.873
11.2302 -16.795 193.814
11.3621 -16.790501 193.76199
11.4959 -16.7889 193.745
11.6291 -16.786501 193.717
11.7627 -16.7847 193.696
11.8976 -16.7847 193.696
12.0319 -16.784 193.687
12.1649 -16.7815 193.659
12.2988 -16.7803 193.644
12.5635 -16.7736 193.56799
12.6987 -16.7743 193.576
12.8341 -16.775101 193.58501
12.9701 -16.776699 193.603
13.1051 -16.776899 193.606
13.2401 -16.7773 193.61
13.3744 -16.7766 193.60201
13.5092 -16.776699 193.603
13.6466 -16.7799 193.64
13.7861 -16.785601 193.70599
13.9275 -16.793501 193.797
14.0696 -16.802099 193.897
14.2107 -16.809299 193.98
14.3513 -16.815901 194.05499
14.4973 -16.828501 194.201
14.6481 -16.846399 194.408
14.796 -16.8608 194.57401
14.9452 -16.876301 194.75301
15.106 -16.9046 195.07899
15.2651 -16.930401 195.377
15.4112 -16.941401 195.504
15.5526 -16.947201 195.571
15.6921 -16.9508 195.61301
15.8263 -16.9487 195.589
15.9645 -16.951 195.614
16.106701 -16.9573 195.687
16.245399 -16.959801 195.716
16.386499 -16.9648 195.774
16.5322 -16.974501 195.886
16.6821 -16.9883 196.045
16.841499 -17.0114 196.312
17.0068 -17.040199 196.644
17.1747 -17.0709 196.99899
17.3302 -17.0891 197.20799
17.6194 -17.1033 197.37199
17.761 -17.1073 197.41901
17.904301 -17.1129 197.48399
18.042801 -17.113899 197.494
18.1901 -17.1231 197.601
18.5242 -17.177799 198.23199
18.9219 -17.289101 199.51601
19.0672 -17.2948 199.58299
19.234699 -17.320499 199.879
2.09899 -17.013399 197.92599
2.2355399 -17.004101 197.817
2.3721299 -16.996 197.72301
2.50894 -16.9904 197.658
2.6459401 -16.9865 197.61301
2.7827899 -16.9821 197.561
3.05463 -16.964199 197.353
3.1898999 -16.9529 197.222
3.32499 -16.9417 197.091
3.45981 -16.93 196.95599
3.59495 -16.920799 196.84801
3.7302001 -16.9126 196.75301
3.8652501 -16.9042 196.65601
4.0001302 -16.8957 196.556
4.1371598 -16.8965 196.56599
4.2734499 -16.8943 196.53999
4.4079199 -16.8853 196.436
4.5432301 -16.879999 196.37399
4.67664 -16.868099 196.235
4.8086801 -16.8521 196.049
4.9417 -16.8403 195.912
5.0750899 -16.8304 195.79601
5.2096 -16.824499 195.729
5.3440599 -16.818899 195.66299
5.4797201 -16.8172 195.64301
5.6155701 -16.8162 195.631
5.7525501 -16.818501 195.658
5.88941 -16.820299 195.67999
6.02703 -16.824301 195.72501
6.1652002 -16.8295 195.786
6.4404602 -16.836399 195.867
6.5768099 -16.836399 195.867
6.7121801 -16.834 195.838
6.8455701 -16.8267 195.754
6.9779902 -16.8174 195.646
7.1126499 -16.813801 195.604
7.2467899 -16.809099 195.549
7.37989 -16.8022 195.46899
7.5150399 -16.8001 195.44501
7.6501598 -16.7981 195.42101
7.7864099 -16.7985 195.42599
7.9219499 -16.7974 195.41299
8.0571699 -16.7957 195.394
8.1920404 -16.7934 195.366
8.3254805 -16.7882 195.306
8.4559698 -16.7773 195.17999
8.7107 -16.7446 194.799
8.9668102 -16.716499 194.47099
9.2250605 -16.6938 194.20799
9.3550396 -16.6845 194.10001
9.6212997 -16.677601 194.019
9.7551203 -16.675501 193.995
9.8879004 -16.6716 193.95
10.0211 -16.668699 193.91499
10.1547 -16.6663 193.888
10.2888 -16.6649 193.871
10.4238 -16.6649 193.87199
10.5587 -16.6649 193.871
10.6929 -16.6637 193.85699
10.9595 -16.6586 193.798
11.0925 -16.6558 193.765
11.2245 -16.6514 193.715
11.3567 -16.647499 193.66901
11.4899 -16.6453 193.644
11.6228 -16.642599 193.612
11.7566 -16.6411 193.595
12.1572 -16.636 193.535
12.2908 -16.634501 193.517
12.4229 -16.6311 193.478
12.5557 -16.6285 193.448
12.6904 -16.6285 193.448
12.8258 -16.6294 193.459
12.9618 -16.6311 193.479
13.0969 -16.631701 193.48599
13.2321 -16.632401 193.493
13.3677 -16.6334 193.505
13.5025 -16.6336 193.507
13.6379 -16.634501 193.517
13.7777 -16.6406 193.588
13.9202 -16.649799 193.696
14.0621 -16.658199 193.79401
14.2029 -16.665001 193.873
14.3441 -16.6723 193.957
14.4877 -16.682199 194.073
14.6379 -16.6994 194.27299
14.7879 -16.716101 194.467
14.9379 -16.7325 194.658
15.0979 -16.759701 194.974
15.2526 -16.7806 195.217
15.3981 -16.791 195.339
15.5397 -16.797001 195.409
15.6776 -16.799101 195.433
15.813 -16.798401 195.425
15.9505 -16.7999 195.442
16.0921 -16.8057 195.50999
16.229 -16.806601 195.52
16.370501 -16.812 195.58299
16.5135 -16.819099 195.66499
16.656099 -16.8255 195.74001
16.806299 -16.839399 195.90199
16.9596 -16.856199 196.09801
17.1182 -16.878099 196.35201
17.2897 -16.9121 196.74699
17.4576 -16.942101 197.09599
17.6064 -16.9533 197.22701
17.746401 -16.955799 197.256
18.175501 -16.971901 197.44299
18.321699 -16.98 197.537
18.4692 -16.989201 197.644
18.663 -17.040501 198.241
18.879101 -17.1113 199.064
19.0387 -17.1301 199.284
19.1833 -17.135401 199.34599
19.3267 -17.139601 199.39301
1.96027 -16.8675 197.83099
2.2332799 -16.849199 197.617
2.36994 -16.842699 197.541
2.5069599 -16.8393 197.50101
2.7802801 -16.8293 197.383
2.9165599 -16.8228 197.30701
3.1870799 -16.800699 197.048
3.32196 -16.789101 196.912
3.4563899 -16.776199 196.761
3.5914299 -16.7672 196.655
3.8618701 -16.7526 196.48399
3.9978299 -16.749201 196.444
4.1346598 -16.7495 196.44701
4.2708702 -16.747299 196.422
4.40555 -16.7395 196.33
4.5401702 -16.731899 196.241
4.6735501 -16.720301 196.106
4.8059502 -16.705999 195.938
4.93925 -16.695499 195.815
5.0728302 -16.686501 195.709
5.3418498 -16.675699 195.582
5.4774299 -16.674 195.562
5.6134901 -16.6737 195.55901
5.7505598 -16.676399 195.59
5.8877501 -16.6793 195.625
6.0253401 -16.683201 195.67
6.1633301 -16.688101 195.72701
6.3005199 -16.6905 195.756
6.4375901 -16.6926 195.78
6.5735502 -16.6917 195.77
6.70824 -16.687799 195.724
6.8422198 -16.682199 195.659
6.9755502 -16.6754 195.578
7.1089702 -16.6689 195.50301
7.2418699 -16.6616 195.416
7.3760099 -16.657301 195.366
7.5124302 -16.658199 195.377
7.6480799 -16.6574 195.367
7.7839198 -16.657101 195.36301
7.9198298 -16.6569 195.36099
8.0547705 -16.654699 195.33501
8.1882801 -16.649599 195.276
