ply
format ascii 1.0
comment PCL generated
element vertex 1692
property float x
property float y
property float z
element camera 0
property float view_px
property float view_py
property float view_pz
property float x_axisx
property float x_axisy
property float x_axisz
property float y_axisx
property float y_axisy
property float y_axisz
property float z_axisx
property float z_axisy
property float z_axisz
property float focal
property float scalex
property float scaley
property float centerx
property float centery
property int viewportx
property int viewporty
property float k1
property float k2
end_header
2.87923 -1.68371 194.782
3.0142601 -1.68339 194.745
3.1486599 -1.68276 194.672
3.2818501 -1.6815701 194.534
3.4171 -1.6814801 194.524
3.6860499 -1.68062 194.425
3.81987 -1.67995 194.347
3.9542301 -1.6795501 194.30099
4.0879798 -1.67893 194.229
4.2234201 -1.67902 194.24001
4.3575201 -1.6785901 194.19
4.49195 -1.67831 194.157
4.6265502 -1.6781 194.133
4.7604198 -1.67766 194.082
4.8941498 -1.6771801 194.02699
5.0286798 -1.677 194.006
5.1626301 -1.67664 193.964
5.2962899 -1.67621 193.914
5.4309201 -1.6761 193.901
5.5650201 -1.67583 193.87
5.6992202 -1.6756001 193.84399
5.8336201 -1.67545 193.826
5.9674602 -1.67514 193.791
6.2361398 -1.67484 193.756
6.3709602 -1.6748199 193.75301
6.50559 -1.67476 193.746
6.6413498 -1.67498 193.772
6.7765899 -1.67506 193.782
6.91084 -1.6749099 193.763
7.0457301 -1.6749099 193.763
7.18082 -1.67495 193.769
7.31426 -1.67462 193.73
7.4503298 -1.67489 193.76199
7.5857701 -1.67501 193.776
7.7207599 -1.67503 193.778
7.85502 -1.6749001 193.76199
7.9893398 -1.67478 193.74899
8.1230698 -1.67454 193.72099
8.2579098 -1.67454 193.72099
8.3903704 -1.67406 193.66499
8.5243196 -1.67389 193.646
8.6572304 -1.67352 193.603
8.7907696 -1.67328 193.576
8.9229002 -1.6727901 193.519
9.0542402 -1.67217 193.44701
9.1851301 -1.6714799 193.367
9.3171597 -1.67102 193.314
9.4482498 -1.6704 193.242
9.5780401 -1.66958 193.147
9.7094498 -1.66905 193.086
9.8376703 -1.668 192.965
10.0922 -1.66567 192.69501
10.2193 -1.66452 192.562
10.3446 -1.66311 192.399
10.4697 -1.66171 192.237
10.5927 -1.66002 192.041
10.7159 -1.65838 191.85201
10.8381 -1.65666 191.653
10.9605 -1.65499 191.46001
11.0829 -1.65337 191.272
11.2047 -1.6517 191.078
11.4578 -1.64983 190.86301
11.5844 -1.64894 190.75999
11.7113 -1.64811 190.664
11.8394 -1.64747 190.589
11.9719 -1.64744 190.586
12.1054 -1.64755 190.599
12.2374 -1.64746 190.589
12.3702 -1.64747 190.59
12.5053 -1.64779 190.627
12.6409 -1.64817 190.67
12.9097 -1.6486 190.72
13.0476 -1.64925 190.79601
13.1907 -1.65053 190.94299
13.3363 -1.6521 191.125
13.5758 -1.6651599 192.636
13.7824 -1.67396 193.65401
13.9553 -1.67854 194.18401
14.1078 -1.6806099 194.423
14.2587 -1.68244 194.63499
14.4075 -1.684 194.815
14.5511 -1.68492 194.922
14.6873 -1.68498 194.929
14.8257 -1.68529 194.965
14.9639 -1.68557 194.99699
15.098 -1.68538 194.976
15.24 -1.68607 195.05499
15.3765 -1.68615 195.064
15.5119 -1.68611 195.06
15.6488 -1.6862299 195.07401
15.7872 -1.68651 195.105
15.9257 -1.68679 195.138
16.065701 -1.68723 195.189
16.204901 -1.68757 195.229
16.3445 -1.68795 195.27299
16.482599 -1.68817 195.298
16.621201 -1.68844 195.32899
16.765499 -1.68928 195.42599
16.909599 -1.6900899 195.52
17.051701 -1.69068 195.588
17.193701 -1.69126 195.655
17.3381 -1.69205 195.74699
17.4816 -1.69275 195.828
17.627399 -1.69367 195.93401
17.773199 -1.6945601 196.037
17.9265 -1.6961499 196.22099
18.074499 -1.69722 196.345
18.220699 -1.69811 196.448
18.370899 -1.69935 196.591
18.516399 -1.70015 196.683
18.6654 -1.70125 196.811
18.814899 -1.70237 196.94099
18.9606 -1.70315 197.03101
19.1078 -1.7040499 197.13499
19.256001 -1.70502 197.24699
19.403299 -1.7059 197.349
19.707399 -1.7084301 197.642
19.8605 -1.70977 197.797
20.013 -1.71104 197.944
20.1702 -1.71269 198.134
20.3279 -1.71435 198.327
20.490101 -1.71638 198.561
20.6546 -1.71856 198.814
20.820101 -1.7208 199.073
20.983101 -1.7228 199.30499
21.170099 -1.72674 199.75999
21.381001 -1.73256 200.43401
21.5968 -1.7387 201.144
21.782101 -1.7423199 201.563
21.935699 -1.74338 201.685
22.0933 -1.74474 201.842
22.254101 -1.74633 202.026
0.57934201 -1.56225 196.57001
0.71548098 -1.56071 196.377
0.85147601 -1.55941 196.213
0.987737 -1.55888 196.146
1.12342 -1.55769 195.996
1.2589 -1.5565 195.84599
1.39446 -1.55563 195.737
1.52967 -1.5545599 195.60201
1.66508 -1.5538501 195.513
1.80056 -1.55331 195.44501
1.93581 -1.55266 195.36301
2.0706899 -1.55182 195.258
2.2056701 -1.55115 195.174
2.3398199 -1.55001 195.03
2.47455 -1.54936 194.948
2.6092701 -1.54877 194.87399
2.7437201 -1.54809 194.78799
2.8787701 -1.5477901 194.75101
3.0136499 -1.54743 194.70599
3.1480701 -1.54688 194.636
3.2811899 -1.54576 194.495
3.41611 -1.54555 194.468
3.5504701 -1.5451 194.412
3.6856301 -1.54503 194.403
3.8188801 -1.54418 194.297
3.9530599 -1.5437599 194.243
4.0868301 -1.54321 194.175
4.22118 -1.54291 194.13699
4.3558202 -1.54273 194.114
4.49054 -1.54259 194.09599
4.6247401 -1.54228 194.058
4.75878 -1.54194 194.015
5.02665 -1.54125 193.92799
5.1612902 -1.54114 193.914
5.2952099 -1.54083 193.87399
5.4292402 -1.54056 193.841
5.5641198 -1.54054 193.839
5.69768 -1.54017 193.79201
5.8324099 -1.54012 193.786
6.1006598 -1.53973 193.737
6.23489 -1.53957 193.717
6.3703198 -1.53971 193.73399
6.5046501 -1.53958 193.718
6.63943 -1.53957 193.716
6.7741699 -1.5395401 193.713
6.9082799 -1.5393699 193.692
7.04321 -1.53939 193.694
7.1771402 -1.5391999 193.67
7.31113 -1.5390199 193.64799
7.4471998 -1.5392801 193.67999
7.58283 -1.53945 193.701
7.7170901 -1.53933 193.686
7.8512602 -1.5391999 193.67
8.1183996 -1.53872 193.61
8.2542696 -1.5389301 193.63499
8.3872499 -1.53859 193.59399
8.5204401 -1.5383101 193.55701
8.65417 -1.53813 193.535
8.7873497 -1.53786 193.50101
8.9194098 -1.5374 193.44299
9.0504904 -1.53679 193.367
9.1806803 -1.53605 193.274
9.3125 -1.5355999 193.217
9.4428997 -1.53493 193.133
9.57374 -1.5343601 193.06
9.7034798 -1.53362 192.968
9.83255 -1.5328 192.864
9.9597597 -1.53171 192.728
10.0884 -1.53087 192.62199
10.2148 -1.5297199 192.47701
10.3389 -1.52826 192.29401
10.4639 -1.52696 192.13
10.5869 -1.52542 191.936
10.7099 -1.52391 191.746
10.8325 -1.52238 191.55299
10.955 -1.52087 191.364
11.0778 -1.5194401 191.183
11.1998 -1.51794 190.994
11.3245 -1.51684 190.856
11.4532 -1.5162801 190.786
11.5799 -1.51547 190.68401
11.8351 -1.51416 190.52
11.9667 -1.51403 190.50301
12.1008 -1.51422 190.526
12.2335 -1.51422 190.52699
12.3666 -1.51428 190.535
12.5014 -1.51454 190.567
12.6365 -1.51484 190.605
12.7698 -1.51492 190.614
12.9064 -1.51537 190.672
13.0438 -1.51591 190.739
13.1856 -1.51695 190.87
13.3279 -1.51802 191.004
13.545 -1.52751 192.19901
13.7548 -1.53599 193.26601
13.9404 -1.5416501 193.97701
14.0928 -1.54355 194.217
14.2443 -1.54531 194.439
14.3955 -1.5470099 194.653
14.5409 -1.54807 194.786
14.6801 -1.54845 194.83299
14.8222 -1.5491199 194.918
14.961 -1.54945 194.959
15.0956 -1.54933 194.944
15.2362 -1.5498199 195.007
15.3734 -1.54997 195.02499
15.5095 -1.55 195.02901
15.6466 -1.55014 195.04601
15.7857 -1.55047 195.08701
15.9233 -1.55064 195.10899
16.064301 -1.55114 195.172
16.202999 -1.55141 195.20599
16.3419 -1.55169 195.242
16.4804 -1.55194 195.27299
16.6192 -1.55221 195.306
16.762699 -1.5529 195.394
16.9058 -1.55355 195.476
17.0488 -1.55418 195.55499
17.1894 -1.55459 195.606
17.333799 -1.55532 195.69901
17.4779 -1.55602 195.786
17.623699 -1.55687 195.89301
17.768499 -1.5576 195.985
17.9214 -1.5590301 196.16499
18.0681 -1.5599101 196.276
18.2141 -1.56071 196.377
18.3634 -1.56179 196.51199
18.5091 -1.5625401 196.606
18.6577 -1.56352 196.729
18.809 -1.56472 196.88
18.9543 -1.56539 196.966
19.1005 -1.5661401 197.05901
19.2479 -1.56697 197.164
19.393801 -1.56767 197.25101
19.543301 -1.56865 197.375
19.8486 -1.5710599 197.679
20.0014 -1.57225 197.82899
20.1576 -1.5737 198.011
20.318199 -1.57546 198.233
20.479601 -1.57726 198.459
20.6446 -1.57932 198.718
20.811199 -1.58147 198.98801
20.976299 -1.58347 199.24001
21.1649 -1.5872101 199.711
21.3822 -1.59305 200.44501
21.5994 -1.59879 201.168
21.7875 -1.60232 201.612
21.942499 -1.6034 201.74699
22.097401 -1.60445 201.88
0.579238 -1.4250799 196.535
0.71544099 -1.4238501 196.366
0.851367 -1.42256 196.187
0.98751903 -1.42195 196.103
1.12327 -1.42098 195.96899
1.2587 -1.41986 195.815
1.39432 -1.41914 195.716
1.5295 -1.41816 195.58
1.66482 -1.41745 195.48199
1.80041 -1.41705 195.42799
1.93549 -1.41635 195.33099
2.0704899 -1.4156801 195.239
2.20542 -1.41505 195.151
2.33954 -1.414 195.007
2.4740801 -1.4133 194.911
2.6089599 -1.41287 194.851
2.7432201 -1.41215 194.752
2.87851 -1.41201 194.733
3.0131299 -1.41157 194.672
3.1474299 -1.4110301 194.597
3.28058 -1.41003 194.459
3.41487 -1.40958 194.397
3.54913 -1.40916 194.339
3.6842999 -1.40911 194.33299
3.8174601 -1.40833 194.22501
3.9519 -1.4080499 194.187
4.0856099 -1.40754 194.117
4.2195501 -1.40714 194.062
4.35426 -1.40702 194.045
4.4882798 -1.40669 193.99899
4.6227102 -1.4065 193.97301
4.8903399 -1.4058 193.87601
5.02495 -1.4057 193.862
5.1599498 -1.40571 193.86301
5.2940602 -1.40548 193.832
5.428 -1.40522 193.797
5.5624499 -1.40511 193.78101
5.6963201 -1.40486 193.746
5.8310299 -1.40481 193.74001
5.9644499 -1.40447 193.69299
6.0994201 -1.4045 193.69701
6.2337499 -1.40439 193.681
6.3691401 -1.40451 193.698
6.5035 -1.40441 193.68401
6.6372399 -1.40417 193.65199
6.77176 -1.40411 193.644
6.90588 -1.40397 193.62399
7.0412302 -1.40409 193.64
7.1742401 -1.40374 193.591
7.3084698 -1.40363 193.577
7.4436002 -1.4037 193.58701
7.57933 -1.40388 193.61099
7.8479199 -1.40371 193.58701
7.9815698 -1.40351 193.56
8.1139297 -1.4031 193.50301
8.2485504 -1.40308 193.50101
8.38379 -1.40317 193.51401
8.5166302 -1.40286 193.47099
8.6504698 -1.40273 193.452
8.7839899 -1.40254 193.427
8.9160995 -1.40214 193.37199
9.0472498 -1.40161 193.298
9.1771603 -1.40089 193.2
9.3074198 -1.40026 193.112
9.4374304 -1.3996 193.021
9.5685997 -1.39913 192.957
9.6987801 -1.39853 192.87399
9.8270998 -1.3976901 192.757
9.9551697 -1.39683 192.63901
10.0847 -1.3961999 192.552
10.2092 -1.39489 192.37199
10.3339 -1.3936501 192.201
10.4577 -1.39231 192.01601
10.5827 -1.39118 191.85899
10.7052 -1.38974 191.662
10.8266 -1.3882 191.44901
10.9496 -1.3868999 191.269
11.0727 -1.38563 191.095
11.1941 -1.3842 190.897
11.3204 -1.3834 190.787
11.4489 -1.38288 190.715
11.5751 -1.38209 190.60699
11.7021 -1.38142 190.51401
11.8308 -1.38096 190.451
11.9625 -1.38086 190.436
12.0962 -1.38099 190.45399
12.2292 -1.38103 190.46001
12.3625 -1.38111 190.47099
12.497 -1.38132 190.5
12.632 -1.38158 190.536
12.7658 -1.3817 190.55299
12.9037 -1.38227 190.631
13.0397 -1.38262 190.679
13.1809 -1.38351 190.802
13.324 -1.38457 190.94901
13.5084 -1.38987 191.679
13.7313 -1.39898 192.936
13.9173 -1.4042 193.655
14.0768 -1.40667 193.996
14.2285 -1.4083101 194.22301
14.3822 -1.41013 194.47301
14.5305 -1.4113801 194.646
14.6722 -1.41198 194.729
14.8147 -1.41264 194.819
15.2321 -1.41361 194.95399
15.3685 -1.41368 194.963
15.5061 -1.4138499 194.987
15.6442 -1.41406 195.01601
15.7836 -1.4144 195.062
15.9213 -1.41456 195.08501
16.062201 -1.41501 195.146
16.201401 -1.4153 195.187
16.339701 -1.41552 195.216
16.478001 -1.41572 195.244
16.615999 -1.4159 195.26801
16.759001 -1.41649 195.351
16.9023 -1.4171 195.435
17.045601 -1.4177099 195.519
17.185101 -1.41799 195.55701
17.3288 -1.41861 195.64301
17.4748 -1.4194 195.752
17.620199 -1.42014 195.854
17.7642 -1.42075 195.938
17.9151 -1.4219 196.097
18.061899 -1.4227099 196.209
18.208401 -1.42348 196.315
18.354799 -1.42424 196.42
18.5002 -1.4249099 196.51199
18.6472 -1.4256901 196.619
18.9433 -1.42738 196.85201
19.0898 -1.42808 196.94901
19.236601 -1.4288 197.049
19.5305 -1.43023 197.245
19.680599 -1.43116 197.37399
19.8353 -1.43241 197.54601
19.990499 -1.4336801 197.72099
20.1478 -1.4350801 197.914
20.3083 -1.43669 198.136
20.4694 -1.43832 198.36099
20.634899 -1.44023 198.62399
20.8016 -1.4421999 198.896
20.967501 -1.44409 199.15601
21.155399 -1.4474601 199.62199
21.377899 -1.45314 200.405
21.603399 -1.45894 201.205
21.7906 -1.4621 201.64101
21.9484 -1.4632699 201.802
0.57927698 -1.28827 196.548
0.71546698 -1.28713 196.373
0.851358 -1.2859 196.185
0.98745602 -1.28528 196.091
1.1231101 -1.2843 195.94099
1.25846 -1.2832201 195.778
1.3941 -1.28262 195.686
1.5293 -1.28177 195.55499
1.6646399 -1.28115 195.461
1.80022 -1.2808 195.408
1.93536 -1.28021 195.31799
2.07026 -1.27955 195.216
2.20523 -1.2790101 195.13499
2.33935 -1.27807 194.991
2.4737301 -1.27736 194.883
2.6085601 -1.27695 194.821
2.74278 -1.2763 194.72099
2.8777699 -1.27605 194.683
3.0124199 -1.2756799 194.62601
3.14657 -1.27513 194.543
3.27999 -1.27435 194.424
3.4142499 -1.27395 194.362
3.5485301 -1.27358 194.306
3.6828599 -1.27325 194.257
3.81604 -1.27257 194.15199
3.95031 -1.27228 194.108
4.0840502 -1.27185 194.043
4.2178602 -1.27147 193.98399
4.35288 -1.2714601 193.983
4.4869099 -1.27117 193.939
4.7544699 -1.27052 193.839
4.8887601 -1.27035 193.813
5.0234799 -1.2703 193.80499
5.1582999 -1.27027 193.80099
5.2925401 -1.27011 193.77699
5.4268799 -1.26998 193.757
5.5609298 -1.2697901 193.728
5.6952 -1.26966 193.70799
5.8295498 -1.26955 193.69099
5.9633098 -1.26932 193.65601
6.09831 -1.2693599 193.662
6.23247 -1.26922 193.642
6.3675199 -1.2692699 193.649
6.50137 -1.26908 193.62
6.6349602 -1.26886 193.58501
6.7697301 -1.26886 193.58501
6.9037399 -1.26872 193.564
7.0381298 -1.2686501 193.55499
7.1711998 -1.26836 193.509
7.3055801 -1.2683001 193.5
7.4401302 -1.26827 193.49699
7.5757699 -1.26843 193.52
7.7104201 -1.26842 193.519
7.8446798 -1.26834 193.508
7.9777699 -1.26809 193.468
8.1097403 -1.26766 193.403
8.2433205 -1.2675 193.379
8.3799696 -1.26781 193.425
8.5132504 -1.2676001 193.394
8.6465597 -1.26741 193.36501
8.7802696 -1.26728 193.345
8.9129105 -1.267 193.302
9.0433798 -1.26643 193.215
9.1734896 -1.26582 193.12199
9.3023195 -1.2650599 193.006
9.4324303 -1.26449 192.91901
9.5647602 -1.26423 192.879
9.6950102 -1.2637 192.799
9.8219995 -1.2627701 192.657
9.9496803 -1.26195 192.533
10.0793 -1.26141 192.44901
10.2039 -1.26024 192.271
10.3304 -1.25934 192.134
10.4528 -1.25799 191.927
10.5777 -1.25695 191.769
10.701 -1.25576 191.58701
10.8221 -1.25432 191.368
10.9445 -1.25309 191.17999
11.0681 -1.25202 191.017
11.1907 -1.25086 190.84
11.316 -1.25002 190.71201
11.4442 -1.2495199 190.636
11.57 -1.24877 190.521
11.6967 -1.24814 190.425
11.8256 -1.24775 190.366
11.9577 -1.24771 190.36
12.0915 -1.24784 190.379
12.2245 -1.24789 190.38699
12.3578 -1.24797 190.399
12.4926 -1.24819 190.433
12.628 -1.2484699 190.47501
12.7625 -1.24866 190.505
12.9002 -1.24915 190.58
13.0364 -1.24949 190.631
13.1781 -1.25035 190.76199
13.3202 -1.25122 190.895
13.7128 -1.2629 192.67599
13.8952 -1.2673 193.347
14.0585 -1.26989 193.743
14.2136 -1.2717 194.02
14.3674 -1.27336 194.27299
14.5185 -1.27476 194.48599
14.6638 -1.27561 194.616
14.8063 -1.27622 194.709
14.9487 -1.2768 194.798
15.0881 -1.27713 194.84801
15.2262 -1.27733 194.879
15.3635 -1.27747 194.89999
15.5023 -1.27772 194.938
15.6416 -1.27802 194.98399
15.781 -1.2783099 195.028
15.9193 -1.27852 195.06
16.058901 -1.2788301 195.10699
16.197901 -1.27907 195.144
16.336399 -1.2792799 195.17599
16.474701 -1.27947 195.205
16.6127 -1.2796299 195.23
16.754999 -1.28012 195.304
16.8985 -1.28069 195.39101
17.0417 -1.28123 195.47301
17.180799 -1.28146 195.508
17.323099 -1.28192 195.578
17.4697 -1.28268 195.69501
17.616699 -1.28346 195.814
17.761299 -1.28407 195.90601
17.909901 -1.28494 196.03999
18.054701 -1.28553 196.13
18.1996 -1.28613 196.22099
18.345699 -1.28679 196.32201
18.492001 -1.28747 196.425
18.639601 -1.28821 196.539
18.7897 -1.28913 196.67799
18.932899 -1.2895499 196.743
19.080299 -1.29026 196.85001
19.2265 -1.29087 196.94501
19.370501 -1.29133 197.015
19.6707 -1.29304 197.27499
19.821699 -1.2939301 197.41
19.978201 -1.2951699 197.60001
20.136801 -1.29652 197.806
20.2964 -1.29792 198.02
20.458401 -1.29945 198.25301
20.6222 -1.30108 198.502
20.792299 -1.30308 198.80701
20.9592 -1.30485 199.078
21.1485 -1.30799 199.556
21.373899 -1.3133 200.366
21.609501 -1.31917 201.26199
21.7915 -1.32171 201.649
21.951799 -1.32291 201.832
0.98738801 -1.14861 196.077
1.1231 -1.14781 195.939
1.25848 -1.14688 195.78101
1.39405 -1.1462801 195.679
1.52925 -1.14551 195.548
1.6645499 -1.14494 195.451
1.80012 -1.14463 195.397
1.93529 -1.14412 195.311
2.07007 -1.14347 195.19901
2.2049301 -1.14294 195.108
2.33938 -1.14227 194.994
2.4735301 -1.14153 194.868
2.60831 -1.14115 194.802
2.7425101 -1.14056 194.702
2.87728 -1.14025 194.64999
3.0117199 -1.13985 194.58099
3.1456499 -1.1393 194.487
3.2792699 -1.13868 194.381
3.41365 -1.13837 194.328
3.54809 -1.1381 194.282
3.6816101 -1.13756 194.19099
3.8153801 -1.13714 194.119
3.9489501 -1.13669 194.04201
4.0829201 -1.13638 193.989
4.2164998 -1.13599 193.92101
4.3511 -1.13588 193.90401
4.61901 -1.13538 193.817
4.7523999 -1.13501 193.755
4.88692 -1.13492 193.74001
5.0219302 -1.13495 193.745
5.15628 -1.13484 193.726
5.2909002 -1.1347899 193.717
5.42524 -1.13468 193.698
5.6942401 -1.13454 193.675
5.8277998 -1.1343 193.633
5.9619899 -1.1341799 193.61301
6.0967002 -1.1341701 193.61099
6.23106 -1.1340899 193.59801
6.3659801 -1.13412 193.60201
6.4988999 -1.13379 193.547
6.6325002 -1.1336 193.51401
6.7673202 -1.13362 193.517
7.0350599 -1.13334 193.47
7.1683302 -1.1331199 193.43201
7.3021202 -1.13298 193.409
7.4361401 -1.13289 193.39301
7.5724101 -1.13313 193.435
7.7067099 -1.13308 193.42599
7.84091 -1.13302 193.414
7.9737802 -1.13276 193.371
8.1066198 -1.13252 193.32899
8.5093603 -1.13238 193.306
8.6424799 -1.13219 193.27299
8.7772799 -1.13222 193.27901
8.9093199 -1.1319 193.22501
9.0392399 -1.13133 193.12601
9.1689396 -1.13074 193.02699
9.2985897 -1.13017 192.92799
9.4290705 -1.12971 192.85001
9.5611496 -1.12945 192.806
9.6899796 -1.12883 192.69901
9.8183203 -1.12816 192.58501
10.0738 -1.12675 192.34399
10.1992 -1.12581 192.18401
10.3255 -1.12499 192.04401
10.4489 -1.12388 191.855
10.5729 -1.12287 191.68201
10.818 -1.12061 191.297
10.9397 -1.11944 191.09599
11.0632 -1.11847 190.93201
11.1873 -1.11759 190.78101
11.3113 -1.11672 190.633
11.4389 -1.11622 190.547
11.565 -1.11559 190.44
11.6916 -1.11502 190.343
11.8201 -1.11464 190.278
11.9536 -1.11474 190.29401
12.2197 -1.11484 190.312
12.3545 -1.11506 190.349
12.4888 -1.1152101 190.375
12.6246 -1.1155 190.425
12.7592 -1.11568 190.455
12.8962 -1.11606 190.52
13.0327 -1.1164 190.577
13.1726 -1.11701 190.681
13.3187 -1.11813 190.873
13.4702 -1.11968 191.13699
13.7 -1.12764 192.49699
13.8771 -1.13115 193.09599
14.0406 -1.1335 193.49699
14.2 -1.13547 193.834
14.3487 -1.13657 194.021
14.5019 -1.13798 194.26199
14.6509 -1.13906 194.446
14.796 -1.1398 194.573
14.9391 -1.14039 194.673
15.0805 -1.14083 194.74899
15.2192 -1.14107 194.78999
15.3581 -1.14132 194.832
15.4973 -1.14158 194.87601
15.7776 -1.14223 194.987
15.9173 -1.1425101 195.036
16.055799 -1.1427 195.06799
16.194401 -1.1429 195.10201
16.3323 -1.14305 195.127
16.471201 -1.14326 195.16299
16.6106 -1.1435 195.205
16.751699 -1.14386 195.265
16.8951 -1.1443599 195.35201
17.037001 -1.14476 195.42
17.1768 -1.14501 195.463
17.3181 -1.14536 195.521
17.4625 -1.1459 195.614
17.6098 -1.14663 195.73801
17.755899 -1.14726 195.84599
17.9028 -1.14794 195.96201
18.047701 -1.1484801 196.054
18.190399 -1.14888 196.12199
18.335699 -1.14942 196.215
18.4821 -1.15003 196.319
18.629299 -1.1506799 196.42999
18.7764 -1.15132 196.539
18.922001 -1.15185 196.63
19.068701 -1.15245 196.731
19.2159 -1.15306 196.83701
19.360701 -1.15352 196.91499
19.5068 -1.15406 197.006
19.660601 -1.15503 197.173
19.809401 -1.15571 197.289
19.964001 -1.15671 197.459
20.120001 -1.1577801 197.64101
20.2845 -1.15931 197.903
20.447901 -1.1607701 198.15199
20.6101 -1.16214 198.38499
20.779499 -1.16389 198.68401
20.9517 -1.1657799 199.007
21.1415 -1.16861 199.49001
21.3689 -1.17347 200.32001
21.615 -1.1792901 201.314
21.792801 -1.18133 201.661
21.9585 -1.18269 201.894
22.112301 -1.1834 202.01601
-4.5334101 -1.0581 205
-4.3906298 -1.05808 204.99699
-4.2476602 -1.05801 204.98399
-4.1051998 -1.05808 204.996
0.98739499 -1.01205 196.07899
1.12308 -1.01131 195.936
1.25855 -1.01057 195.79201
1.3940099 -1.0099601 195.674
1.52904 -1.0091701 195.521
1.66443 -1.0087301 195.436
1.80022 -1.00859 195.408
1.93521 -1.00804 195.30299
2.0700099 -1.00748 195.19299
2.2047901 -1.00697 195.09599
2.33917 -1.0063601 194.976
2.47316 -1.00565 194.839
2.6078501 -1.00528 194.76801
2.7423201 -1.0048701 194.689
2.87676 -1.00449 194.614
3.0114501 -1.00423 194.564
3.1450701 -1.00365 194.451
3.2788401 -1.00316 194.356
3.4129601 -1.00281 194.289
3.5476 -1.00264 194.255
3.6805999 -1.00203 194.13699
3.8147099 -1.00176 194.084
3.9479899 -1.00129 193.994
4.0818701 -1.001 193.939
4.2149401 -1.00054 193.85001
4.4837999 -1.0003099 193.80499
4.6176901 -1.00009 193.76199
4.7508702 -0.99972999 193.692
4.8854198 -0.99967098 193.67999
5.02033 -0.99968702 193.68401
5.1550102 -0.99965799 193.67799
5.2894602 -0.99958599 193.664
5.5581498 -0.99941498 193.631
5.6925402 -0.99934399 193.617
5.8260598 -0.99912697 193.575
5.9607902 -0.99912202 193.57401
6.0953302 -0.99908698 193.567
6.2299099 -0.99905998 193.562
6.3646402 -0.99905699 193.562
6.49757 -0.99877697 193.507
6.6309099 -0.99857098 193.467
6.7651801 -0.99850899 193.455
6.8992 -0.99841398 193.437
7.0328302 -0.99826902 193.409
7.16607 -0.99807298 193.371
7.2994399 -0.997904 193.338
7.4333301 -0.99780798 193.32001
7.5690999 -0.99796498 193.35001
7.7030201 -0.99787802 193.33299
7.8375401 -0.99786901 193.33099
8.1033201 -0.99745101 193.25
8.2359304 -0.99721801 193.205
8.3700304 -0.99716997 193.196
8.5051899 -0.99724901 193.211
8.6386604 -0.99712902 193.188
8.7722797 -0.99703097 193.16901
8.9058199 -0.996925 193.149
9.0363197 -0.99648899 193.064
9.1646996 -0.99583501 192.937
9.2956495 -0.99547398 192.867
9.4253197 -0.99498999 192.77299
9.6864796 -0.99424601 192.629
9.8147097 -0.99365199 192.51401
9.9415102 -0.99293101 192.375
10.0688 -0.99228197 192.24899
10.1957 -0.99160302 192.117
10.3213 -0.99082202 191.966
10.4429 -0.98968101 191.745
10.5675 -0.98884797 191.58299
10.6915 -0.98798603 191.41701
10.8133 -0.98694003 191.214
10.9352 -0.98592699 191.01801
11.0583 -0.98504603 190.847
11.1838 -0.98439699 190.72099
11.3088 -0.98372 190.59
11.4347 -0.98314202 190.478
11.561 -0.98260701 190.37399
11.688 -0.98214102 190.284
11.8167 -0.98182797 190.22301
11.9493 -0.98184001 190.226
12.0811 -0.98179001 190.216
12.2153 -0.98193401 190.244
12.3507 -0.98216897 190.28999
12.4856 -0.98236001 190.327
12.6208 -0.98257297 190.368
12.7554 -0.98272997 190.39799
12.8926 -0.98308301 190.467
13.0299 -0.98343998 190.536
13.1686 -0.98389202 190.623
13.3149 -0.98490202 190.819
13.458 -0.98564798 190.964
13.6817 -0.99223202 192.239
13.8639 -0.99570698 192.912
14.0282 -0.99784201 193.326
14.1812 -0.99913901 193.577
14.3323 -1.00028 193.798
14.491 -1.00192 194.116
14.6391 -1.00281 194.289
14.7857 -1.00358 194.438
14.9291 -1.00412 194.543
15.0706 -1.00453 194.62199
15.2117 -1.0049 194.69299
15.3513 -1.00516 194.745
15.4906 -1.00541 194.79201
15.6318 -1.00577 194.862
15.7737 -1.00616 194.939
15.9139 -1.0064501 194.994
16.052999 -1.00666 195.035
16.191299 -1.00682 195.065
16.327999 -1.00687 195.076
16.4673 -1.00709 195.117
16.607599 -1.00736 195.17
16.7479 -1.00762 195.22099
16.891701 -1.0081 195.313
17.0326 -1.0083899 195.369
17.1726 -1.00862 195.41499
17.313801 -1.00892 195.47301
17.457001 -1.00933 195.552
17.603701 -1.00994 195.67
17.7493 -1.01047 195.774
17.894699 -1.01099 195.87399
18.0404 -1.01151 195.97501
18.183701 -1.0118999 196.049
18.325701 -1.0122 196.108
18.4706 -1.01266 196.198
18.618601 -1.01328 196.31799
18.763599 -1.01373 196.40401
18.912901 -1.01441 196.536
19.058599 -1.0148799 196.627
19.205799 -1.01542 196.73199
19.350901 -1.0158499 196.815
19.495899 -1.01627 196.896
19.6479 -1.01704 197.04601
19.798401 -1.01773 197.179
19.9522 -1.0185699 197.342
20.106899 -1.0194499 197.51199
20.2731 -1.02089 197.79201
20.4361 -1.0221601 198.037
20.6008 -1.02349 198.29601
20.7696 -1.02501 198.59
20.942499 -1.02671 198.91901
21.1329 -1.02924 199.409
21.3561 -1.03332 200.2
21.6042 -1.03855 201.213
21.798599 -1.04114 201.715
21.970501 -1.04264 202.005
22.1196 -1.04304 202.082
-4.5331302 -0.91525197 204.987
-4.3895202 -0.91506201 204.94501
-4.2460499 -0.914891 204.907
-4.1041698 -0.915061 204.94501
0.85134602 -0.87593901 196.183
0.987315 -0.875404 196.063
1.12317 -0.87490797 195.952
1.25852 -0.87417197 195.787
1.3939199 -0.87361002 195.661
1.52897 -0.87294602 195.51199
1.66425 -0.872513 195.41499
1.80005 -0.872401 195.39
1.93505 -0.87193698 195.286
2.0699501 -0.871499 195.188
2.2044101 -0.87093598 195.062
2.33904 -0.870502 194.965
2.4733 -0.86998898 194.85001
2.6073899 -0.86946899 194.73399
2.74189 -0.86913103 194.658
2.8761699 -0.86875898 194.575
3.01092 -0.86855799 194.52901
3.14498 -0.86818099 194.44501
3.27812 -0.86759198 194.313
3.4124999 -0.86736703 194.263
3.5464499 -0.86705202 194.192
3.67963 -0.866579 194.086
3.8133299 -0.86625898 194.01401
3.94749 -0.86606097 193.97
4.08109 -0.86575502 193.90199
4.2136798 -0.86526299 193.79201
4.3485599 -0.86525798 193.78999
4.4823599 -0.865044 193.742
4.61621 -0.86485302 193.7
4.7498002 -0.86462498 193.649
4.8843298 -0.86457503 193.63699
5.0188198 -0.86452103 193.625
5.2881999 -0.86448902 193.618
5.42273 -0.86444801 193.60899
5.5570402 -0.864375 193.592
5.6910901 -0.86426502 193.56799
5.8248401 -0.86411601 193.535
5.9593201 -0.86408001 193.52699
6.0939698 -0.86406898 193.524
6.22823 -0.86400503 193.50999
6.3626299 -0.86396301 193.5
6.4967399 -0.86388302 193.48199
6.6290202 -0.86356997 193.412
6.76368 -0.863572 193.41299
6.8972502 -0.86343598 193.382
7.0299201 -0.86319703 193.32899
7.1638799 -0.86312097 193.312
7.2965202 -0.86289299 193.261
7.4312401 -0.86291403 193.265
7.5658598 -0.86292303 193.267
7.6996198 -0.86283499 193.248
7.83354 -0.86276799 193.233
7.9671402 -0.86266899 193.21001
8.0999498 -0.86248797 193.17
8.2315102 -0.86218297 193.10201
8.36654 -0.86224401 193.11501
8.5010004 -0.86224699 193.116
8.6350803 -0.86221099 193.108
8.7673502 -0.86199802 193.06
8.9016104 -0.86198503 193.05701
9.0313396 -0.86154002 192.95799
9.1607199 -0.86107397 192.853
9.2923498 -0.86083198 192.799
9.42097 -0.86032099 192.685
9.5539398 -0.86021501 192.661
9.6833696 -0.85979801 192.56799
9.8116102 -0.85928899 192.45399
9.9372997 -0.85857397 192.293
10.0636 -0.85793197 192.14999
10.1909 -0.85738498 192.02699
10.3157 -0.856646 191.862
10.4392 -0.85582602 191.67799
10.5627 -0.855021 191.498
10.6866 -0.85426199 191.328
10.8082 -0.85335302 191.12399
10.9314 -0.852579 190.951
11.0541 -0.85179102 190.774
11.1779 -0.85110801 190.621
11.3046 -0.85065299 190.519
11.4309 -0.85018402 190.414
11.5576 -0.84975201 190.317
11.6842 -0.84932899 190.22301
11.8139 -0.84913301 190.179
11.9455 -0.84907699 190.166
12.0784 -0.84911001 190.174
12.2122 -0.84920901 190.196
12.3467 -0.84935403 190.228
12.4804 -0.84943998 190.248
12.6161 -0.84965998 190.297
12.7526 -0.84992701 190.35699
12.8887 -0.85016203 190.409
13.0262 -0.85048801 190.48199
13.1662 -0.85096598 190.589
13.3101 -0.85168099 190.75
13.4549 -0.85244602 190.92101
13.6622 -0.85711002 191.965
13.852 -0.86059999 192.74699
14.0168 -0.862481 193.168
14.1675 -0.86347401 193.39101
14.321 -0.86461198 193.646
14.4754 -0.86578202 193.908
14.6299 -0.86694098 194.16701
14.7762 -0.86759502 194.314
14.9183 -0.86799002 194.40199
15.0604 -0.86838001 194.489
15.2033 -0.86881101 194.586
15.3435 -0.86907899 194.646
15.4833 -0.869317 194.69901
15.6266 -0.86975002 194.79601
15.7697 -0.87016398 194.88901
15.9074 -0.87027597 194.914
16.049 -0.87059402 194.985
16.188 -0.87077099 195.02499
16.3239 -0.87077999 195.02699
16.463499 -0.87098002 195.07201
16.603001 -0.871176 195.116
16.7437 -0.87143099 195.173
16.888201 -0.87187701 195.27299
17.027201 -0.87203097 195.30701
17.1681 -0.87228298 195.364
17.3076 -0.87245798 195.403
17.4508 -0.87281901 195.48399
17.5968 -0.87330902 195.59399
17.8866 -0.874165 195.785
18.0315 -0.87458199 195.879
18.1742 -0.87488598 195.94701
18.316999 -0.875193 196.015
18.4611 -0.87555498 196.097
18.608601 -0.87607002 196.21201
18.754299 -0.87649798 196.308
18.904699 -0.87713403 196.45
19.048901 -0.87747401 196.526
19.1957 -0.87793201 196.629
19.340799 -0.87830698 196.713
19.4832 -0.87855399 196.76801
19.6373 -0.87932098 196.94
19.786501 -0.87985599 197.06
19.941601 -0.88064802 197.237
20.096901 -0.881437 197.414
20.259899 -0.88255203 197.664
20.424299 -0.88371301 197.924
20.593 -0.885041 198.22099
20.7589 -0.88622999 198.487
20.933599 -0.88778102 198.83501
21.122 -0.889884 199.306
21.3402 -0.89321202 200.05099
21.599701 -0.898211 201.17101
21.801001 -0.90074199 201.73801
-4.5331001 -0.77246797 204.98599
-4.3885899 -0.77214903 204.901
-4.2449398 -0.77196598 204.853
-4.1027799 -0.77205098 204.87601
-3.96243 -0.77249402 204.993
0.987266 -0.73880398 196.05299
1.12315 -0.73840898 195.948
1.25857 -0.737831 195.795
1.39393 -0.73733199 195.662
1.52897 -0.73676801 195.513
1.66413 -0.73635101 195.40199
1.79984 -0.73621899 195.367
1.9349101 -0.73586398 195.27299
2.0697801 -0.73548299 195.17101
2.2042799 -0.735026 195.05
2.3387799 -0.73462301 194.94299
2.4729099 -0.73415399 194.819
2.60745 -0.73385 194.73801
2.7418699 -0.73354298 194.657
2.8759601 -0.73317999 194.56
3.01035 -0.73292297 194.492
3.1444499 -0.73262203 194.412
3.27791 -0.73220098 194.30099
3.41166 -0.73187703 194.215
3.5460899 -0.731718 194.173
3.67925 -0.731318 194.06599
3.81282 -0.73102403 193.98801
3.94681 -0.730829 193.937
4.0804501 -0.73058301 193.871
4.2130699 -0.73017699 193.76401
4.3476801 -0.73013002 193.75101
4.4821701 -0.73006701 193.73399
4.6160002 -0.72990203 193.69099
4.74894 -0.72961098 193.61301
4.8835602 -0.72958702 193.60699
5.0173502 -0.72944301 193.569
5.1522799 -0.72946697 193.575
5.28719 -0.72948903 193.58099
5.4211798 -0.72938401 193.55299
5.5549102 -0.72925299 193.51801
5.6893902 -0.72922099 193.50999
5.82339 -0.72913301 193.48599
5.9577999 -0.72909802 193.47701
6.0926199 -0.72911298 193.481
6.2266698 -0.729038 193.461
6.3608899 -0.72898501 193.44701
6.4954901 -0.72897702 193.44501
6.6279802 -0.72873801 193.382
6.7614799 -0.72861701 193.35001
6.8949699 -0.72850001 193.31799
7.0278902 -0.72832799 193.27299
7.16188 -0.72827101 193.258
7.2950301 -0.72813302 193.22099
7.5631499 -0.728046 193.198
7.6969399 -0.727979 193.17999
7.8305898 -0.727902 193.16
7.9646702 -0.72786599 193.14999
8.0974703 -0.72771698 193.11099
8.2288904 -0.72745103 193.03999
8.36343 -0.72746402 193.04401
8.4980602 -0.727485 193.049
8.6307402 -0.727341 193.011
8.7638102 -0.72723299 192.98199
8.8972597 -0.72715998 192.963
9.0272598 -0.72681201 192.871
9.1578503 -0.72652 192.793
9.4172201 -0.72582197 192.608
9.5483999 -0.72560102 192.549
9.6784697 -0.72530299 192.47
9.8067198 -0.72487903 192.358
9.9331598 -0.72433501 192.213
10.0592 -0.723777 192.065
10.1857 -0.72326303 191.929
10.3104 -0.72263801 191.763
10.4345 -0.72199202 191.591
10.5582 -0.72132802 191.41499
10.6825 -0.72072101 191.254
10.8054 -0.72004402 191.075
10.9288 -0.71940601 190.905
11.0519 -0.71877098 190.737
11.1754 -0.71817499 190.57899
11.2999 -0.71765798 190.442
11.4277 -0.71735501 190.36099
11.5552 -0.71704298 190.278
11.6816 -0.71666998 190.179
11.8107 -0.71647298 190.127
11.9421 -0.71641499 190.11099
12.075 -0.71644503 190.119
12.2078 -0.71647602 190.12801
12.342 -0.716582 190.15601
12.4761 -0.71667898 190.18201
12.6116 -0.71685499 190.228
12.7481 -0.71708798 190.28999
12.8844 -0.71729898 190.34599
13.0212 -0.71753597 190.409
13.1618 -0.71797502 190.52499
13.3045 -0.71851897 190.67
13.4486 -0.71912402 190.83099
13.6471 -0.72259903 191.75301
13.84 -0.72571498 192.57899
14.0064 -0.72739798 193.026
14.1581 -0.72828603 193.26199
14.3115 -0.72925103 193.51801
14.4644 -0.73016697 193.761
14.6174 -0.731071 194.00101
14.9084 -0.732099 194.274
15.0521 -0.73250997 194.383
15.195 -0.73287499 194.479
15.4755 -0.733338 194.60201
15.6183 -0.73368299 194.694
15.7616 -0.73404199 194.789
15.9013 -0.73423201 194.84
16.0436 -0.73453802 194.92101
16.182301 -0.734671 194.95599
16.319599 -0.73474401 194.97501
16.459801 -0.73494399 195.02901
16.600401 -0.735156 195.08501
16.7402 -0.735331 195.131
16.882401 -0.73561001 195.205
17.0226 -0.73579401 195.254
17.162901 -0.735982 195.304
17.302099 -0.73612303 195.341
17.445101 -0.73641503 195.41901
17.590799 -0.73682302 195.52699
17.735201 -0.73716599 195.618
17.8794 -0.73749799 195.70599
18.0238 -0.73783201 195.795
18.167299 -0.738123 195.87199
18.309299 -0.73834997 195.93201
18.4519 -0.73859799 195.998
18.594999 -0.738864 196.069
18.743601 -0.73934299 196.196
18.8923 -0.73981601 196.321
19.036699 -0.740116 196.401
19.182199 -0.74045497 196.491
19.3312 -0.74092299 196.61501
19.476101 -0.74122798 196.696
19.628 -0.741795 196.847
19.776899 -0.74224001 196.965
19.930799 -0.74286503 197.131
20.091 -0.74371499 197.356
20.252399 -0.7446 197.591
20.416 -0.74554801 197.842
20.584299 -0.746656 198.13699
20.749701 -0.74764597 198.399
20.924299 -0.74895501 198.74699
21.1099 -0.75063503 199.192
21.3288 -0.75346702 199.944
21.6057 -0.75830001 201.226
21.811199 -0.76058197 201.832
-4.3881602 -0.62936801 204.881
-4.2439799 -0.62913799 204.806
-3.9598701 -0.62930399 204.86099
-3.8192599 -0.62963498 204.968
0.987212 -0.60221601 196.04201
1.12299 -0.60184199 195.92101
1.25852 -0.60143101 195.787
1.3939 -0.60103703 195.659
1.52899 -0.60059398 195.51401
1.6640199 -0.60020697 195.38901
1.7996 -0.60005999 195.34
1.93454 -0.59973598 195.235
2.0696101 -0.599491 195.155
2.2040601 -0.59911001 195.03101
2.3385301 -0.59877503 194.922
2.4726601 -0.59839797 194.799
2.6075301 -0.59822798 194.744
2.74173 -0.59792799 194.646
2.8757801 -0.59762502 194.548
3.00998 -0.59738201 194.46899
3.1438 -0.59708601 194.37199
3.2774799 -0.59678799 194.276
3.41082 -0.59645402 194.16701
3.5455699 -0.59638399 194.144
3.6789401 -0.59609503 194.05
3.8125 -0.59585702 193.972
3.9463301 -0.59567398 193.91299
4.0797501 -0.59544599 193.838
4.2128201 -0.59517998 193.752
4.3470602 -0.59509403 193.724
4.4813499 -0.59501803 193.69901
4.6153202 -0.59490401 193.662
4.7481499 -0.59465599 193.58099
5.0162101 -0.59448302 193.52499
5.1513901 -0.59453499 193.54201
5.2860298 -0.59452403 193.53799
5.4197502 -0.59441298 193.502
5.5531001 -0.59426802 193.455
5.6874299 -0.59423202 193.44299
5.8217301 -0.59419399 193.431
5.9561601 -0.594172 193.424
6.09092 -0.59418303 193.427
6.2246799 -0.59409702 193.39999
6.3590102 -0.59406799 193.39
6.4932399 -0.594033 193.37801
6.6261201 -0.593876 193.327
6.7593398 -0.59375602 193.28799
6.8927898 -0.59366101 193.257
7.0260401 -0.59355199 193.222
7.1603098 -0.59353203 193.215
7.4261599 -0.593279 193.133
7.56042 -0.59326398 193.12801
7.6944499 -0.59323198 193.118
7.8280301 -0.59316701 193.097
7.9625201 -0.59317201 193.09801
8.09585 -0.59309202 193.07201
8.2275696 -0.59289801 193.009
8.3606596 -0.59280801 192.98
8.4951401 -0.59281802 192.983
8.6273499 -0.59267098 192.935
8.7603102 -0.59257901 192.905
8.8935003 -0.59250599 192.881
9.0236502 -0.59223503 192.793
9.1540403 -0.59198803 192.713
9.28405 -0.59172398 192.627
9.4137897 -0.59144998 192.53799
9.5434198 -0.59117699 192.44901
9.6731396 -0.59091699 192.364
9.8009901 -0.59055102 192.245
9.9274797 -0.59011501 192.103
10.0541 -0.58969897 191.968
10.1801 -0.58925802 191.82401
10.3052 -0.588772 191.666
10.4303 -0.588305 191.51401
10.5538 -0.58775598 191.33501
10.6769 -0.58720303 191.155
10.8011 -0.586721 190.998
10.924 -0.58617997 190.82201
11.0483 -0.58572501 190.674
11.1719 -0.58524799 190.519
11.2975 -0.58488399 190.39999
11.4241 -0.58457798 190.30099
11.5515 -0.584324 190.218
11.6797 -0.58411402 190.14999
11.809 -0.58396202 190.10001
11.9395 -0.58387202 190.071
12.0711 -0.58383399 190.058
12.2042 -0.58387101 190.071
12.3383 -0.58395898 190.099
12.472 -0.584023 190.12
12.6066 -0.584126 190.153
12.7435 -0.58433402 190.22099
12.8798 -0.584508 190.278
13.1544 -0.58493799 190.418
13.298 -0.58542597 190.577
13.4437 -0.58599502 190.76199
13.6285 -0.58823699 191.492
13.825 -0.59093702 192.371
13.9958 -0.592498 192.879
14.1505 -0.593355 193.158
14.303 -0.59410697 193.403
14.4548 -0.59481198 193.632
14.6059 -0.59547698 193.849
14.7557 -0.59607702 194.04401
14.8992 -0.59641403 194.15401
15.0445 -0.596816 194.285
15.1875 -0.597121 194.384
15.3283 -0.59733599 194.45399
15.4681 -0.597507 194.509
15.6103 -0.59776402 194.593
15.7516 -0.59798503 194.66499
15.8925 -0.59819001 194.73199
16.0327 -0.59836298 194.78799
16.172899 -0.59853101 194.843
16.3123 -0.59867001 194.888
16.454201 -0.59889799 194.96201
16.596701 -0.59913999 195.041
16.7367 -0.59929401 195.091
16.875401 -0.59939498 195.12399
17.017401 -0.59961098 195.194
17.158001 -0.599778 195.24899
17.298401 -0.59993303 195.299
17.439699 -0.60011703 195.35899
17.584 -0.60039902 195.451
17.7278 -0.60066199 195.537
17.872101 -0.60093802 195.62601
18.0135 -0.60110998 195.68201
18.1591 -0.601421 195.784
18.300699 -0.60159498 195.84
18.4429 -0.60178798 195.903
18.586 -0.602005 195.974
18.8783 -0.60262603 196.17599
19.024799 -0.60294002 196.278
19.1698 -0.60320401 196.364
19.3181 -0.60356599 196.48199
19.465599 -0.60390002 196.591
19.6229 -0.604527 196.795
19.77 -0.60483903 196.896
19.924801 -0.60537601 197.071
20.082701 -0.60600001 197.274
20.2453 -0.60675901 197.521
20.407301 -0.60748798 197.759
20.5739 -0.60834301 198.037
20.7414 -0.60921198 198.32001
20.916599 -0.61029702 198.673
21.101101 -0.61163503 199.10899
21.315701 -0.613823 199.821
21.6113 -0.618303 201.27901
-4.3875599 -0.48659599 204.853
-4.0998302 -0.48629901 204.728
-3.9576001 -0.48633501 204.743
-3.6758201 -0.48676899 204.92599
0.85135603 -0.46600601 196.185
0.98730701 -0.46571201 196.061
1.12308 -0.46541601 195.937
1.25849 -0.46504799 195.782
1.39393 -0.464764 195.662
1.5290101 -0.46441901 195.517
1.66401 -0.46411201 195.388
1.79944 -0.46395999 195.32401
1.93449 -0.46373901 195.23
2.06934 -0.46349999 195.13
2.20385 -0.46322101 195.01199
2.3384199 -0.46298599 194.914
2.47258 -0.462699 194.793
2.60711 -0.46250799 194.71201
2.7413599 -0.46228901 194.62
2.8754101 -0.46205899 194.52299
3.00931 -0.46182501 194.425
3.14345 -0.46164799 194.351
3.2771201 -0.46142 194.254
3.4106901 -0.46119499 194.16
3.54492 -0.46107301 194.108
3.6786201 -0.46089399 194.033
3.8122301 -0.46071699 193.95799
3.94591 -0.46055999 193.892
4.0792198 -0.46037099 193.813
4.2125401 -0.46019599 193.739
4.3467898 -0.46013099 193.71201
4.4809399 -0.46005899 193.681
4.61449 -0.45993099 193.627
4.7474298 -0.45975101 193.552
4.8817801 -0.45971501 193.536
5.01544 -0.45961601 193.495
5.1503801 -0.459638 193.504
5.2846599 -0.45960101 193.48801
5.41887 -0.45955899 193.47099
5.5525899 -0.459479 193.437
5.6860099 -0.45937899 193.395
5.8200998 -0.45933601 193.377
5.9551601 -0.45936999 193.39101
6.0894699 -0.459346 193.381
6.2231998 -0.45928001 193.353
6.35744 -0.459254 193.342
6.4906001 -0.45915201 193.3
6.6235499 -0.45903999 193.252
6.7576799 -0.45901299 193.241
6.8910198 -0.45893401 193.20799
7.02391 -0.45882899 193.16299
7.1588502 -0.458859 193.17599
7.2923598 -0.45879799 193.151
7.4242201 -0.458637 193.08299
7.5580902 -0.45860401 193.069
7.6924701 -0.45860201 193.06799
7.82551 -0.45852301 193.035
7.9600201 -0.45853001 193.03799
8.0941095 -0.45851299 193.03101
8.2258797 -0.458368 192.96899
8.3582497 -0.45826 192.924
8.4922504 -0.458244 192.91701
8.6245804 -0.458139 192.873
8.7571001 -0.45804799 192.83501
8.8896103 -0.457959 192.797
9.0199299 -0.45776099 192.714
9.1502199 -0.45756701 192.632
9.2799301 -0.457351 192.541
9.4100599 -0.45716101 192.461
9.5397396 -0.45695499 192.37399
9.6687098 -0.45672101 192.276
9.7954597 -0.45638999 192.13699
9.9222002 -0.45606801 192.00101
10.0497 -0.455787 191.883
10.1754 -0.45543301 191.73399
10.3008 -0.45507899 191.58501
10.426 -0.45472401 191.435
10.5495 -0.45430201 191.258
10.6732 -0.45390099 191.089
10.7975 -0.45353299 190.93401
10.9219 -0.453179 190.785
11.0456 -0.45280501 190.62801
11.1689 -0.452425 190.468
11.2948 -0.452158 190.355
11.4211 -0.45191199 190.25101
11.5485 -0.45171201 190.168
11.6766 -0.45154899 190.099
11.8069 -0.45147201 190.06599
11.9373 -0.45140001 190.036
12.0681 -0.451343 190.01199
12.2004 -0.45134401 190.01199
12.3344 -0.451408 190.039
12.4683 -0.45146501 190.063
12.6025 -0.45153299 190.092
12.7396 -0.451702 190.16299
12.8761 -0.45184401 190.22301
13.0131 -0.452005 190.291
13.2917 -0.45246899 190.48599
13.4409 -0.45302701 190.72099
13.6148 -0.45440099 191.299
13.8088 -0.456413 192.147
13.9848 -0.45779499 192.728
14.1448 -0.45863199 193.08099
14.2964 -0.45918399 193.313
14.4483 -0.45973399 193.545
14.5974 -0.460188 193.735
14.7468 -0.460641 193.927
14.89 -0.46089599 194.034
15.1816 -0.461546 194.30701
15.3219 -0.46170101 194.373
15.4624 -0.46185499 194.438
15.6039 -0.46203601 194.51401
15.7446 -0.46219099 194.57899
15.8851 -0.46234 194.64101
16.023199 -0.462412 194.672
16.164 -0.46256301 194.73599
16.305401 -0.46272999 194.806
16.447599 -0.462915 194.884
16.591499 -0.463146 194.981
16.7318 -0.46327201 195.034
16.870199 -0.46334401 195.064
17.013 -0.46353501 195.145
17.153601 -0.46366301 195.19901
17.293501 -0.46376899 195.243
17.4338 -0.46388599 195.29201
17.5765 -0.46406499 195.368
17.7209 -0.464286 195.461
17.863501 -0.464454 195.532
18.005301 -0.4646 195.593
18.2917 -0.46495801 195.744
18.4331 -0.46508899 195.799
18.577299 -0.46528599 195.882
18.7192 -0.465424 195.94
18.865999 -0.46567899 196.048
19.0133 -0.465947 196.16
19.159201 -0.46617401 196.256
19.3076 -0.46645799 196.375
19.4557 -0.46673101 196.49001
19.615 -0.46726799 196.716
19.7656 -0.46759099 196.85201
19.9209 -0.468018 197.032
20.0762 -0.46844199 197.211
20.2384 -0.46902099 197.45399
20.3988 -0.46954799 197.67599
20.5644 -0.47018701 197.94501
20.7316 -0.470855 198.22701
20.9041 -0.471634 198.554
21.0889 -0.47267899 198.994
-4.3881602 -0.34395799 204.882
-4.09934 -0.34365901 204.703
-3.9556899 -0.34356001 204.645
-3.81359 -0.34359199 204.664
-3.67277 -0.34374699 204.756
-3.53339 -0.344055 204.94
-3.3912201 -0.34410599 204.97
0.85141301 -0.32938001 196.198
0.98744202 -0.32919499 196.088
1.12324 -0.32898799 195.965
1.25861 -0.32871401 195.80099
1.39406 -0.32850999 195.67999
1.52898 -0.32823101 195.51401
1.66397 -0.32801199 195.383
1.79941 -0.32790601 195.32001
1.93436 -0.32773399 195.217
2.0692799 -0.32757801 195.125
2.20382 -0.32738501 195.00999
2.33831 -0.32720801 194.90401
2.4725299 -0.327014 194.789
2.60655 -0.32681599 194.67101
2.74103 -0.32669199 194.597
2.8749001 -0.32651001 194.489
3.0088201 -0.32635099 194.394
3.14293 -0.326224 194.31799
3.2766399 -0.326069 194.226
3.4103701 -0.32592699 194.14101
3.54456 -0.32583901 194.089
3.67821 -0.325708 194.011
3.81199 -0.3256 193.946
3.9455199 -0.32547599 193.873
4.07864 -0.32532999 193.785
4.2119398 -0.32520601 193.71201
4.3465199 -0.325185 193.69901
4.4808602 -0.325149 193.67799
4.6143999 -0.32505801 193.623
4.7472 -0.324922 193.54201
4.8814101 -0.32488701 193.522
5.0152102 -0.32482699 193.48599
5.1491699 -0.324781 193.45799
5.2835102 -0.32475999 193.446
5.41785 -0.32474101 193.435
5.5510201 -0.324653 193.383
5.6849899 -0.32461599 193.36
5.8190699 -0.32458699 193.343
6.0880198 -0.32457399 193.33501
6.2217002 -0.32452601 193.30701
6.35535 -0.32447901 193.27901
6.48877 -0.324422 193.245
6.6213598 -0.32432801 193.189
6.7557302 -0.32432199 193.185
6.8895202 -0.32428899 193.166
7.02244 -0.324218 193.123
7.1570401 -0.32422501 193.127
7.2903299 -0.324173 193.097
7.4223399 -0.32406801 193.034
7.55583 -0.32403001 193.011
7.6907802 -0.324054 193.026
7.8233399 -0.32397899 192.981
7.9576502 -0.32397801 192.98
8.0925503 -0.324 192.993
8.2237597 -0.32387599 192.92
8.3563299 -0.323809 192.88
8.4888802 -0.323744 192.841
8.6218901 -0.323697 192.813
8.7539902 -0.32361901 192.76601
8.8869305 -0.32357299 192.739
9.0177002 -0.32345 192.666
9.1464796 -0.32326201 192.554
9.2760201 -0.32310501 192.46001
9.4060297 -0.32296801 192.379
9.5351601 -0.322806 192.282
9.6641598 -0.322644 192.186
9.7912102 -0.322422 192.054
9.9182396 -0.32220501 191.924
10.0456 -0.32200301 191.804
10.1717 -0.32177001 191.66499
10.297 -0.32151601 191.51401
10.4218 -0.321253 191.35699
10.5463 -0.320988 191.19901
10.67 -0.32070601 191.03101
10.7938 -0.32043299 190.869
10.9192 -0.32021299 190.73801
11.0433 -0.31996301 190.589
11.1671 -0.31970701 190.436
11.2926 -0.31950799 190.31799
11.4187 -0.31933001 190.21201
11.5458 -0.31918299 190.12399
11.6739 -0.319065 190.054
11.8046 -0.31902301 190.02901
11.9347 -0.318964 189.994
12.0659 -0.31893599 189.97701
12.1984 -0.31894299 189.981
12.3326 -0.318993 190.011
12.4662 -0.31902799 190.032
12.5994 -0.31905001 190.045
12.7365 -0.31916901 190.116
12.8724 -0.319258 190.16901
13.0093 -0.31936899 190.235
13.1457 -0.31946599 190.293
13.2849 -0.319626 190.388
13.606 -0.320948 191.175
13.7934 -0.32221699 191.931
13.9738 -0.32330099 192.577
14.1374 -0.32397699 192.98
14.2897 -0.32438499 193.22301
14.4414 -0.324772 193.453
14.5906 -0.32509401 193.645
14.8805 -0.32553801 193.91
15.0277 -0.32580301 194.06799
15.1751 -0.326067 194.22501
15.315 -0.32616699 194.285
15.4565 -0.32629901 194.36301
15.5967 -0.32640201 194.424
15.737 -0.32650399 194.485
16.0168 -0.32668799 194.595
16.156799 -0.32677999 194.649
16.2987 -0.32690901 194.726
16.4415 -0.32705101 194.811
16.5853 -0.327214 194.908
16.725599 -0.32730499 194.96201
16.8643 -0.32736301 194.996
17.007299 -0.327501 195.07899
17.1471 -0.32757699 195.12399
17.2873 -0.32765999 195.174
17.427999 -0.32775101 195.228
17.57 -0.32786599 195.29601
17.7138 -0.32801101 195.383
17.8547 -0.3281 195.436
17.9974 -0.32822201 195.508
18.141899 -0.32837299 195.59801
18.2827 -0.328457 195.64799
18.4224 -0.32852 195.686
18.565901 -0.328648 195.76199
18.7089 -0.328765 195.832
18.854099 -0.32892001 195.924
19.002001 -0.329119 196.043
19.150801 -0.32933199 196.17
19.300301 -0.32955199 196.30099
19.4491 -0.329759 196.424
19.6064 -0.33010501 196.63
19.759899 -0.330383 196.79601
19.914 -0.33066601 196.964
20.07 -0.33097699 197.14999
20.2314 -0.33137301 197.38499
20.3925 -0.33175901 197.61501
20.557199 -0.33219701 197.87601
20.719999 -0.3326 198.116
20.8943 -0.333179 198.461
-4.3896699 -0.201322 204.952
-4.0987301 -0.201048 204.673
-3.9547 -0.200969 204.593
-3.8116 -0.20093399 204.55701
-3.66939 -0.20094401 204.56799
-3.52824 -0.20101599 204.64101
-3.3889 -0.20120201 204.83
0.85134798 -0.192708 196.183
0.987517 -0.19262899 196.103
1.1232899 -0.19250099 195.972
1.25875 -0.192353 195.82201
1.39415 -0.19222701 195.69299
1.5290101 -0.192054 195.51801
1.6639 -0.19191401 195.37399
1.79921 -0.19183999 195.299
1.93422 -0.191745 195.203
2.06936 -0.19167601 195.132
2.204 -0.191571 195.026
2.3382699 -0.191449 194.901
2.47246 -0.191333 194.783
2.6062801 -0.191203 194.651
2.74088 -0.191139 194.586
2.8745999 -0.19102401 194.46899
3.0085199 -0.19093101 194.37399
3.1427 -0.190862 194.304
3.2761099 -0.19075499 194.194
3.4100299 -0.19068401 194.12199
3.5446899 -0.190658 194.095
3.6779301 -0.190561 193.99699
3.81165 -0.190494 193.929
3.9451699 -0.190422 193.856
4.0785198 -0.190347 193.78
4.2120099 -0.190284 193.715
4.3464799 -0.190267 193.698
4.4805198 -0.19023301 193.66299
4.6142201 -0.19018701 193.616
4.8811898 -0.19008499 193.513
5.0148702 -0.190046 193.47301
5.1486702 -0.19001301 193.44
5.2825699 -0.18998601 193.412
5.4169998 -0.189978 193.40401
5.5496302 -0.18990999 193.334
5.6843801 -0.189915 193.34
5.9528599 -0.18989199 193.317
6.0869198 -0.18987601 193.3
6.2199502 -0.18982901 193.252
6.3534598 -0.189799 193.22099
6.4867301 -0.18976299 193.18401
6.6199899 -0.18972699 193.149
6.7539601 -0.189714 193.13499
7.0211201 -0.189666 193.08701
7.1559901 -0.189679 193.099
7.28862 -0.189632 193.05099
7.4204898 -0.189567 192.98599
7.5542598 -0.18955299 192.97099
7.6891098 -0.189565 192.98399
7.8213701 -0.18951499 192.93201
7.95471 -0.189492 192.909
8.0906496 -0.189531 192.948
8.2222795 -0.189468 192.88499
8.3543596 -0.189419 192.834
8.4863596 -0.18936899 192.783
8.6191597 -0.189338 192.752
8.7510595 -0.18928801 192.702
8.8842096 -0.18926699 192.67999
9.0154896 -0.189207 192.619
9.1443996 -0.1891 192.50999
9.27349 -0.189 192.408
9.40201 -0.18889099 192.297
9.5317497 -0.18880901 192.213
9.6598701 -0.18869799 192.10001
9.7866201 -0.188563 191.963
9.9139004 -0.18844201 191.84
10.0414 -0.188329 191.72501
