# .PCD v0.7 - Point Cloud Data file format
VERSION 0.7
FIELDS x y z
SIZE 4 4 4
TYPE F F F
COUNT 1 1 1
WIDTH 1844
HEIGHT 1
VIEWPOINT 0 0 0 1 0 0 0
POINTS 1844
DATA ascii
11.8099 9.1855602 192.269
11.948 9.1887903 192.33701
12.0865 9.1923103 192.41
12.2236 9.1947002 192.46001
12.3623 9.1982098 192.534
12.5001 9.2009401 192.591
12.6407 9.20574 192.69099
12.7789 9.2086401 192.752
12.9203 9.21381 192.86
13.0595 9.2173004 192.933
13.1957 9.2185802 192.96001
13.3328 9.2205 193
13.4715 9.2235003 193.063
13.609 9.2255697 193.106
13.7499 9.2299204 193.19701
13.8864 9.2312698 193.226
14.0225 9.2322903 193.24699
14.1607 9.2346802 193.297
14.2988 9.23701 193.34599
14.44 9.24123 193.43401
14.5814 9.2454596 193.52299
14.7225 9.2495003 193.60699
14.8613 9.2519703 193.659
15.0009 9.2549801 193.722
15.146 9.2611904 193.85201
15.2898 9.2665796 193.965
15.4335 9.2717695 194.073
15.5819 9.2797003 194.239
15.728 9.28613 194.37399
15.876 9.29356 194.53
16.028299 9.30336 194.735
16.176399 9.3105402 194.88499
16.326401 9.3187304 195.056
16.6334 9.3386202 195.47301
16.7887 9.3493204 195.69701
16.944901 9.3603497 195.92799
17.101299 9.3713503 196.158
17.264299 9.3857098 196.45799
17.431801 9.4023104 196.806
17.923901 9.4450197 197.7
18.092699 9.4613304 198.041
18.268101 9.4807997 198.44901
18.437799 9.4970503 198.789
18.615 9.51688 199.20399
2.21543 9.5021095 196.037
2.3498099 9.4936895 195.86301
2.4839799 9.4853401 195.69099
2.6180799 9.4776402 195.532
2.88557 9.46206 195.21001
3.0192201 9.4550304 195.06599
3.1526699 9.448 194.92
3.2855999 9.4400501 194.756
3.4192801 9.4348297 194.649
3.5529101 9.4298401 194.54601
3.68647 9.4250603 194.44701
3.8201599 9.4209404 194.362
3.9532399 9.4156303 194.25301
4.0858898 9.4096899 194.13
4.2184 9.4038095 194.009
4.3524699 9.40168 193.965
4.4846702 9.39575 193.842
4.6164899 9.38941 193.71201
4.7494001 9.3855495 193.632
4.8820601 9.3814497 193.547
5.0150399 9.3781605 193.479
5.14674 9.3727198 193.367
5.2790499 9.3686304 193.283
5.4120998 9.3660202 193.229
5.5430198 9.3599596 193.104
5.6749001 9.3557396 193.017
5.8069 9.3519297 192.938
5.9393802 9.3490496 192.879
6.07198 9.3464603 192.826
6.2045698 9.3439999 192.77499
6.3369002 9.3412399 192.718
6.4685001 9.3375397 192.642
6.5999999 9.3338499 192.565
6.73208 9.3311195 192.509
6.8646698 9.3291702 192.46899
6.99545 9.3249102 192.381
7.1280398 9.3231497 192.345
7.26052 9.3213301 192.30701
7.3924198 9.31884 192.256
7.5264001 9.3190203 192.259
7.6601801 9.3189402 192.258
7.7929001 9.3176003 192.23
7.9257798 9.3164997 192.207
8.0590801 9.3158998 192.19501
8.1938601 9.3170204 192.218
8.3288298 9.3183203 192.245
8.4629402 9.3186197 192.25101
8.5955095 9.3172598 192.22301
8.7270098 9.3147802 192.172
8.8596802 9.3136101 192.14799
8.9926596 9.3128004 192.131
9.1269302 9.3133297 192.142
9.2606401 9.3132801 192.14101
9.3943596 9.3132401 192.14
9.5280104 9.3131399 192.138
9.6614799 9.3128595 192.132
9.7943296 9.3120003 192.11501
9.9295502 9.3133898 192.14301
10.0643 9.3142996 192.162
10.1974 9.3137302 192.14999
10.3305 9.3130703 192.13699
10.4645 9.3132801 192.14101
10.5979 9.3130102 192.13499
10.7321 9.3133898 192.14301
10.8664 9.3138704 192.153
10.9992 9.3129997 192.13499
11.1333 9.3133001 192.14101
11.2684 9.3143902 192.164
11.4032 9.3152905 192.18201
11.5404 9.3180103 192.239
11.6762 9.3195696 192.271
11.8106 9.3199902 192.27901
11.9485 9.3231602 192.345
12.0861 9.3260298 192.40401
12.2228 9.3281403 192.448
12.3615 9.3316698 192.52
12.5 9.3350496 192.59
12.6408 9.3400297 192.69299
12.779 9.3429804 192.754
12.9193 9.3474102 192.845
13.059 9.3512897 192.925
13.1952 9.3526697 192.95399
13.3329 9.3550301 193.002
13.472 9.3582897 193.07001
13.6105 9.3611498 193.129
13.7504 9.36483 193.20399
13.8875 9.3665895 193.241
14.024 9.3679399 193.269
14.1636 9.3712902 193.338
14.3029 9.3743601 193.401
14.4438 9.3783998 193.48399
14.5851 9.3826799 193.573
14.7256 9.3863497 193.64799
14.8642 9.38869 193.69701
15.0044 9.3920603 193.76601
15.149 9.3980799 193.89
15.2916 9.4028101 193.98801
15.4364 9.4087 194.11
15.5854 9.4171305 194.284
15.7313 9.42346 194.414
15.8808 9.4319096 194.589
16.031401 9.4408398 194.77299
16.177401 9.4468899 194.89799
16.33 9.4567099 195.10001
16.4846 9.4674501 195.32201
16.639299 9.4781303 195.54201
16.7952 9.4893103 195.77299
16.951 9.5002699 195.99899
17.1103 9.51297 196.261
17.269899 9.52565 196.522
17.438101 9.5428305 196.877
17.6001 9.5563402 197.15601
17.7689 9.5733604 197.507
17.934 9.5881205 197.811
18.1047 9.6056099 198.172
18.280701 9.6256399 198.58501
18.454599 9.6442804 198.97
2.2160699 9.6414604 196.09399
2.35059 9.6332798 195.927
2.4846201 9.6241398 195.741
2.6189401 9.6169901 195.59599
2.75243 9.6076603 195.40601
2.8861201 9.5998802 195.248
3.01985 9.5929003 195.106
3.1531301 9.5851803 194.94901
3.28652 9.5783997 194.811
3.55427 9.5690002 194.62
3.68767 9.5635996 194.50999
3.8210199 9.5584602 194.40601
3.9539001 9.5525303 194.285
4.0862198 9.54566 194.145
4.2193499 9.5410995 194.05299
4.3531399 9.53825 193.995
4.4853001 9.5320997 193.87
4.6173 9.5259895 193.745
4.74963 9.5208797 193.64101
4.8819299 9.5159998 193.54201
5.0143499 9.5116196 193.453
5.1466799 9.5072803 193.36501
5.2795701 9.50418 193.302
5.54356 9.4953804 193.123
5.6752801 9.4908304 193.03
5.8067098 9.4860201 192.93201
5.9394498 9.48351 192.881
6.0721898 9.4811096 192.832
6.2048898 9.4787598 192.785
6.3369398 9.4755201 192.71899
6.4695702 9.4732904 192.673
6.6008101 9.4691401 192.589
6.7319798 9.4650698 192.506
6.8646202 9.4631701 192.468
6.9953899 9.4588203 192.379
7.1287198 9.4580297 192.36301
7.26157 9.4566402 192.33501
7.3930302 9.4535398 192.272
7.52666 9.4532499 192.26601
7.6601501 9.4528103 192.257
7.7926002 9.4511299 192.22301
7.9253101 9.44981 192.196
8.3275099 9.4507198 192.214
8.59377 9.4492302 192.18401
8.7258396 9.4473696 192.146
8.85816 9.4458303 192.11501
8.9908895 9.4447699 192.093
9.1254797 9.4456596 192.112
9.2589502 9.4453897 192.106
9.39324 9.4459496 192.117
9.5278797 9.4468298 192.13499
9.66119 9.4463997 192.127
9.7936897 9.4452 192.10201
9.9291401 9.4468403 192.13499
10.0639 9.4478197 192.155
10.197 9.4471397 192.142
10.3311 9.4475002 192.149
10.4655 9.4480801 192.161
10.5993 9.4480896 192.161
10.7331 9.4481297 192.162
10.8686 9.4495697 192.19099
11.0019 9.4491997 192.18401
11.1357 9.4491701 192.183
11.2709 9.4503899 192.20799
11.4063 9.4516602 192.23399
11.5425 9.4535904 192.27299
11.6769 9.4540997 192.283
11.8119 9.4549904 192.30099
11.9496 9.4580498 192.36301
12.0862 9.4601202 192.40601
12.2222 9.4617395 192.439
12.3605 9.4650297 192.506
12.5003 9.46945 192.595
12.6414 9.4746599 192.701
12.7795 9.4776297 192.76199
12.9193 9.4816999 192.84399
13.0587 9.4854803 192.92101
13.1955 9.4872704 192.95799
13.3329 9.4894505 193.002
13.4727 9.49331 193.08099
13.612 9.4967003 193.14999
13.7513 9.5000095 193.217
13.8885 9.5018702 193.255
14.0252 9.5033703 193.285
14.1658 9.5074301 193.368
14.4457 9.5144396 193.50999
14.5871 9.5188198 193.599
14.7282 9.5228596 193.68201
14.8678 9.5259199 193.744
15.1524 9.5353098 193.935
15.2947 9.5398102 194.026
15.4397 9.5459805 194.15199
15.5887 9.5544701 194.325
15.7344 9.56077 194.453
15.8866 9.57092 194.659
16.0364 9.5794802 194.83299
16.183701 9.5863705 194.97301
16.335899 9.5960398 195.17
16.4891 9.6061602 195.37601
16.641001 9.6153297 195.562
16.8015 9.6292801 195.84599
16.9566 9.6399498 196.063
17.118 9.6540098 196.349
17.277901 9.6669998 196.61301
17.4489 9.6859198 196.998
17.613001 9.7007599 197.3
17.7773 9.7155199 197.60001
17.946199 9.7325001 197.94501
18.119301 9.7515001 198.332
18.296301 9.7722902 198.755
18.4671 9.7895098 199.105
2.48543 9.76367 195.806
2.61935 9.7547598 195.627
2.7530799 9.7460604 195.452
2.8868301 9.7382698 195.29601
3.0204799 9.7308197 195.147
3.15395 9.7234898 195
3.2874601 9.7168503 194.867
3.4216101 9.7125797 194.78101
3.55533 9.7074499 194.67799
3.6887 9.7017899 194.565
3.82181 9.6958599 194.446
3.95467 9.6897402 194.323
4.08709 9.6829596 194.187
4.2203698 9.6785898 194.099
4.35355 9.6742802 194.013
4.4858799 9.6683903 193.895
4.6177802 9.6619396 193.765
4.7501101 9.6567402 193.661
4.8817701 9.6505003 193.536
5.01407 9.6458302 193.442
5.1470098 9.6426001 193.377
5.2795701 9.6388302 193.302
5.4121499 9.6352901 193.231
5.5436802 9.6301003 193.127
5.6755099 9.6256599 193.03799
5.8064198 9.6199198 192.923
5.9391699 9.6173897 192.87199
6.07266 9.6161699 192.847
6.2048502 9.6129704 192.783
6.3368502 9.6096201 192.716
6.4692898 9.60707 192.66499
6.6003299 9.6025896 192.575
6.73142 9.59834 192.49001
6.86415 9.59657 192.45399
6.9955101 9.5929804 192.382
7.1291599 9.5925999 192.375
7.26157 9.5906096 192.33501
7.3931398 9.5875902 192.274
7.5264502 9.5869102 192.261
7.6595302 9.5859499 192.241
7.7919598 9.5842304 192.207
7.9244099 9.5825901 192.174
8.1901598 9.5804701 192.132
8.3252001 9.5819502 192.161
8.4583797 9.5812798 192.14799
8.5913897 9.5804396 192.131
8.7234001 9.5785303 192.093
8.8562403 9.57757 192.073
8.9890499 9.5766001 192.054
9.1228199 9.5766897 192.056
9.2565403 9.5767097 192.056
9.3909302 9.5774097 192.07001
9.52563 9.5783997 192.09
9.6589603 9.5780201 192.082
9.7926702 9.5780001 192.082
9.92836 9.5798998 192.12
10.0626 9.5803604 192.129
10.1954 9.5794697 192.11099
10.3306 9.5808601 192.13901
10.4645 9.5809603 192.14101
10.5985 9.5811796 192.146
10.7335 9.5822802 192.168
10.8686 9.5834904 192.192
11.0025 9.58356 192.19299
11.1373 9.5844297 192.211
11.2726 9.58566 192.23599
11.4084 9.5873003 192.269
11.5432 9.58813 192.285
11.6779 9.58885 192.299
11.8134 9.5901299 192.325
11.9513 9.5933399 192.39
12.0871 9.5948296 192.42
12.2229 9.5962801 192.44901
12.3604 9.59904 192.504
12.5004 9.60361 192.59599
12.6416 9.6090202 192.70399
12.7798 9.6120701 192.765
12.9196 9.6162901 192.85001
13.0588 9.6199198 192.923
13.1956 9.6217604 192.96001
13.3332 9.6240902 193.006
13.4735 9.6283197 193.091
13.6135 9.6322803 193.17101
13.7521 9.63517 193.228
13.8895 9.6371603 193.26801
14.0272 9.6393299 193.312
14.1674 9.6431904 193.38901
14.3065 9.6462097 193.45
14.4479 9.6507101 193.53999
14.5897 9.6553497 193.633
14.7309 9.6595697 193.718
14.8706 9.6627102 193.78101
15.0122 9.6670504 193.868
15.155 9.67202 193.968
15.2984 9.6773195 194.07401
15.4434 9.6835403 194.198
15.5932 9.6925802 194.38
15.7378 9.6983004 194.495
15.8908 9.7090502 194.71001
16.188499 9.7250299 195.03101
16.3402 9.73456 195.222
16.494301 9.7453003 195.437
16.649599 9.7565699 195.66299
16.807501 9.7691803 195.916
16.962299 9.7798004 196.129
17.1231 9.7936697 196.407
17.4555 9.82687 197.073
17.788601 9.8594303 197.726
18.1308 9.8959103 198.45799
18.310301 9.9183397 198.907
2.35198 9.9121103 196.04401
2.48616 9.9029303 195.862
2.6202199 9.8943195 195.692
2.75405 9.8856802 195.521
3.0211501 9.8689499 195.19
3.15447 9.86094 195.032
3.2881401 9.8546305 194.907
3.4218099 9.8488302 194.79201
3.6895399 9.83955 194.60899
3.8227401 9.8336897 194.493
3.9558599 9.8280497 194.381
4.0877099 9.8197098 194.216
4.2209601 9.8151598 194.127
4.3540101 9.8104496 194.033
4.4864702 9.8047304 193.92
4.6178999 9.7971697 193.771
4.7502599 9.7919397 193.66701
4.8821201 9.7860098 193.55
5.0142798 9.7809801 193.45
5.1475501 9.7783098 193.39799
5.2796798 9.7736797 193.306
5.5432601 9.7638798 193.112
5.6752 9.7595997 193.028
5.93887 9.7512398 192.862
6.0722899 9.7498999 192.836
6.20438 9.7465096 192.769
6.3358598 9.7423296 192.686
6.46806 9.7394199 192.62801
6.5995798 9.73561 192.55299
6.73138 9.7323704 192.489
6.8642001 9.7306995 192.45599
7.1287699 9.7260599 192.364
7.2609701 9.7237797 192.319
7.39186 9.71984 192.241
7.5255299 9.7196398 192.237
7.6578002 9.71766 192.198
7.7903199 9.7160597 192.166
8.0563297 9.7142 192.13
8.1883898 9.7122002 192.09
8.3221998 9.7122898 192.092
8.4553299 9.7116203 192.07899
8.5886497 9.7111702 192.07001
8.7210703 9.7097197 192.041
8.8530703 9.70788 192.005
8.9857397 9.7068005 191.983
9.1197395 9.7071695 191.991
9.2530699 9.7068396 191.98399
9.3873596 9.70749 191.99699
9.5227804 9.7092896 192.032
9.6567097 9.7095299 192.037
9.7905502 9.7096901 192.041
9.9250498 9.7104902 192.056
10.0593 9.7110596 192.067
10.194 9.7119303 192.08501
10.3292 9.7133999 192.114
10.4635 9.7138796 192.123
10.5972 9.7138205 192.12199
10.7326 9.7153502 192.15199
10.8682 9.71696 192.18401
11.0019 9.7169199 192.183
11.1378 9.71875 192.22
11.2727 9.7196503 192.237
11.4087 9.72153 192.27499
11.543 9.72188 192.282
11.6777 9.7225599 192.295
11.815 9.7254496 192.35201
11.9521 9.7280302 192.403
12.0873 9.7290497 192.423
12.2239 9.7311802 192.465
12.3605 9.7332096 192.506
12.6415 9.7432003 192.703
12.7804 9.7468596 192.776
12.9192 9.7502604 192.843
13.0594 9.7547197 192.931
13.1967 9.7569599 192.97501
13.4745 9.7635298 193.105
13.616 9.7686005 193.20599
13.7539 9.7710104 193.25301
13.8917 9.7733097 193.299
14.0292 9.7754202 193.34
14.1702 9.77981 193.427
14.3101 9.7833796 193.498
14.4514 9.7878904 193.58701
14.5924 9.7920198 193.66901
14.7336 9.7962799 193.75301
14.8728 9.7991199 193.80901
15.0152 9.8039999 193.90601
15.1578 9.80896 194.004
15.3011 9.81425 194.108
15.4498 9.8228502 194.27901
15.5982 9.8311596 194.44299
15.8936 9.8464203 194.745
16.043501 9.8552198 194.91901
16.1931 9.8636904 195.086
16.345699 9.8738604 195.28799
16.499399 9.88451 195.498
16.6553 9.8962603 195.73
16.9681 9.9197702 196.196
17.1299 9.9344301 196.485
17.295799 9.95119 196.817
17.464199 9.9690905 197.17101
17.6341 9.9875603 197.536
17.801399 10.0043 197.867
17.974899 10.0243 198.26199
18.1518 10.0458 198.688
2.3529501 10.0528 196.12399
2.4870901 10.0431 195.936
2.62081 10.0329 195.73599
2.7544501 10.0233 195.55
2.8885601 10.0163 195.41299
3.02179 10.007 195.231
3.15537 9.9996204 195.08701
3.2892699 9.9938202 194.974
3.42256 9.9867001 194.83501
3.5564301 9.9817495 194.739
3.6900401 9.9764404 194.63499
3.8229201 9.9696398 194.502
4.0886202 9.9571896 194.259
4.2217698 9.9522896 194.164
4.3545098 9.9467497 194.056
4.48664 9.9401703 193.927
4.6185098 9.9334497 193.79601
4.7504702 9.9272804 193.67599
4.8821402 9.9208498 193.55
5.01369 9.9145498 193.42799
5.1468501 9.9116602 193.371
5.2793198 9.9076405 193.293
5.41117 9.9026899 193.196
5.5422401 9.8965702 193.077
5.6744299 9.8927002 193.00101
5.8063002 9.8884697 192.91901
5.93855 9.8850498 192.85201
6.07198 9.8837004 192.826
6.20401 9.8802004 192.757
6.3355999 9.8761396 192.67799
6.46735 9.8725004 192.60699
6.5993299 9.8693504 192.54601
6.7306499 9.8653698 192.468
6.8628898 9.8628502 192.41901
6.9941101 9.8590097 192.34399
7.12778 9.8586903 192.338
7.2590399 9.8550997 192.26801
7.3908601 9.8524103 192.215
7.52245 9.8494997 192.159
7.6556001 9.84869 192.14301
7.7873201 9.8461199 192.092
7.9204402 9.8453598 192.078
8.0536299 9.8447199 192.065
8.1847 9.8415499 192.00301
8.3172398 9.8402205 191.97701
8.4512997 9.8407097 191.987
8.5844297 9.8401098 191.97501
8.7183199 9.8403902 191.981
8.8497105 9.8378801 191.93201
9.2500095 9.8373003 191.92
9.3833504 9.8370304 191.91499
9.5187597 9.8388901 191.952
9.6532698 9.8397903 191.96899
9.7876701 9.84056 191.98399
9.9223604 9.8415899 192.004
10.0573 9.8428698 192.02901
10.1924 9.8441696 192.05499
10.7305 9.8472099 192.114
10.8668 9.8495703 192.16
11.0009 9.8498096 192.16499
11.1376 9.8524504 192.216
11.2723 9.8531904 192.23
11.4078 9.85466 192.259
11.5421 9.8550196 192.26601
11.6777 9.8565798 192.297
11.8156 9.8598604 192.36099
11.9533 9.8629999 192.422
12.0877 9.86341 192.42999
12.2235 9.86485 192.45799
12.3616 9.8681202 192.522
12.5009 9.8723297 192.604
12.6416 9.87749 192.705
12.7811 9.8816099 192.785
12.9204 9.8855104 192.86099
13.0601 9.8896399 192.942
13.1969 9.8915396 192.979
13.336 9.8950195 193.047
13.4763 9.8993597 193.131
13.6164 9.9035101 193.21201
13.7552 9.9066 193.272
13.8926 9.9085999 193.311
14.031 9.9113197 193.36501
14.1716 9.9155502 193.44701
14.3114 9.9190798 193.51601
14.4523 9.9233398 193.599
14.5928 9.9272299 193.675
14.7364 9.9331398 193.78999
14.8754 9.9358501 193.843
15.0173 9.9404697 193.933
15.1622 9.94697 194.06
15.4559 9.9621296 194.356
15.6022 9.9691601 194.493
15.7468 9.9750004 194.60699
15.8998 9.9859695 194.821
16.0488 9.9943104 194.98399
16.1985 10.0029 195.15199
16.350901 10.013 195.349
16.504801 10.0239 195.562
16.6612 10.0361 195.8
16.8172 10.0479 196.02901
17.1409 10.0778 196.612
17.308201 10.0955 196.95799
17.479601 10.1154 197.345
17.651699 10.1352 197.733
17.819901 10.1527 198.073
18.1696 10.1941 198.882
2.62198 10.1737 195.823
2.75577 10.1644 195.64301
2.8896799 10.1564 195.489
3.0228 10.1464 195.297
3.15627 10.1384 195.14301
3.2897799 10.1312 195.004
3.4234099 10.1249 194.883
3.5569899 10.119 194.769
3.6906199 10.1136 194.666
3.8238599 10.1076 194.55
3.9574599 10.1029 194.46001
4.0894699 10.0946 194.3
4.22264 10.0896 194.20399
4.3549399 10.0829 194.075
4.48698 10.076 193.942
4.6188102 10.0691 193.80901
4.7508402 10.063 193.69099
4.8827801 10.057 193.576
5.0141301 10.0502 193.44501
5.1465502 10.0458 193.36
5.2794399 10.0425 193.297
5.4109702 10.0369 193.189
5.5421801 10.0309 193.075
5.67377 10.026 192.979
5.8057499 10.0219 192.89999
5.9380698 10.0186 192.836
6.0717402 10.0176 192.81799
6.20331 10.0133 192.735
6.3350101 10.0094 192.66
6.4663501 10.0051 192.577
6.5981498 10.0017 192.511
6.7294402 9.9976196 192.433
6.86163 9.9950399 192.384
6.9926801 9.9909401 192.30499
7.1258502 9.9899597 192.286
7.2573299 9.98668 192.22301
7.38873 9.9834204 192.16
7.5206699 9.9809799 192.11301
7.65311 9.9792805 192.08
7.7846999 9.9765501 192.028
7.9176302 9.9756098 192.00999
8.0504599 9.9745798 191.99001
8.1820698 9.9720898 191.942
8.3141403 9.9702196 191.90601
8.4477501 9.9702396 191.90601
8.5803699 9.9691095 191.88499
8.7146902 9.9699602 191.901
8.8460999 9.9674997 191.854
8.9795103 9.96733 191.85001
9.1131001 9.96737 191.851
9.2465401 9.9672403 191.849
9.3795204 9.96663 191.83701
9.5147305 9.9683704 191.87
9.6490698 9.9691696 191.886
9.7845402 9.9710903 191.923
9.9201698 9.9731197 191.96201
10.0542 9.9734697 191.968
10.1884 9.9740696 191.98
10.3221 9.9741001 191.98
10.4566 9.9749203 191.996
10.5917 9.9762402 192.022
10.7272 9.9780197 192.056
10.9988 9.9818201 192.129
11.1351 9.9840803 192.173
11.2709 9.9858599 192.207
11.4058 9.9868097 192.22501
11.5413 9.9883204 192.254
11.6777 9.9905005 192.29601
11.8149 9.9932899 192.35001
11.9523 9.9962196 192.40601
12.0882 9.9978199 192.437
12.2243 9.9995699 192.47099
12.3615 10.0022 192.521
12.501 10.0066 192.605
12.6411 10.0113 192.69701
12.7802 10.0152 192.771
12.9203 10.0198 192.86
13.0605 10.0243 192.94701
13.1975 10.0264 192.98599
13.3367 10.03 193.05701
13.476 10.0336 193.127
13.6164 10.038 193.211
13.7575 10.0429 193.30499
13.894 10.0443 193.332
14.1734 10.0515 193.47
14.3149 10.0563 193.563
14.4552 10.0602 193.638
14.5944 10.0632 193.696
14.7382 10.0693 193.814
14.8786 10.073 193.88499
15.0211 10.0781 193.98199
15.3118 10.0917 194.243
15.4605 10.1005 194.41299
15.6052 10.1065 194.53
15.7532 10.1146 194.685
16.0534 10.133 195.039
16.2041 10.1423 195.21899
16.3563 10.1525 195.414
16.512501 10.1649 195.653
16.6682 10.1768 195.882
16.8269 10.1903 196.142
16.988199 10.2052 196.42799
17.1546 10.2229 196.769
17.322201 10.241 197.117
17.494301 10.2614 197.50999
17.666 10.2813 197.894
17.8375 10.3008 198.269
18.0114 10.3214 198.664
2.4890699 10.3243 196.092
2.6226399 10.3127 195.873
2.75634 10.3028 195.68401
2.89011 10.2941 195.51801
3.1570201 10.2768 195.189
3.2901299 10.2681 195.02499
3.4241199 10.2628 194.924
3.55755 10.2563 194.8
3.69134 10.2512 194.70399
3.8241601 10.2439 194.565
3.9577601 10.2391 194.47501
4.0901899 10.2317 194.334
4.2231002 10.226 194.22501
4.3551402 10.2185 194.08299
4.4876599 10.2127 193.972
4.6192799 10.2051 193.828
4.7507401 10.1977 193.687
4.8826098 10.1915 193.569
5.0139899 10.1846 193.439
5.14639 10.1801 193.354
5.2792401 10.1768 193.28999
5.41045 10.1705 193.17
5.5419202 10.1649 193.06599
5.67342 10.1597 192.967
5.8050399 10.155 192.877
5.9372101 10.1514 192.808
6.0708098 10.1504 192.789
6.2018399 10.1452 192.69
6.46454 10.1364 192.52299
6.5957899 10.1321 192.44299
6.7276802 10.129 192.383
6.9910202 10.1225 192.259
7.1233802 10.1204 192.21899
7.2544999 10.1166 192.14799
7.3857698 10.1132 192.08299
7.5181499 10.1114 192.048
7.6503201 10.1094 192.00999
7.7824798 10.1074 191.97301
7.9149799 10.106 191.94501
8.0476704 10.1048 191.923
8.1795998 10.1027 191.884
8.3118296 10.1011 191.853
8.5776596 10.0996 191.82401
8.7108698 10.0992 191.817
8.8429298 10.0975 191.785
8.9758701 10.0969 191.772
9.10958 10.0971 191.77699
9.24259 10.0966 191.767
9.3757801 10.0962 191.75999
9.5107698 10.0978 191.78999
9.6449699 10.0985 191.804
9.7792902 10.0993 191.82001
9.9154797 10.102 191.871
10.0499 10.1029 191.88699
10.1839 10.1034 191.896
10.3182 10.1041 191.909
10.4524 10.1046 191.91901
10.5871 10.1056 191.939
10.7225 10.1073 191.97099
10.8607 10.1116 192.052
10.9956 10.1127 192.07401
11.2693 10.1183 192.17999
11.4045 10.1195 192.203
11.5406 10.1216 192.242
11.6766 10.1235 192.278
11.8131 10.1257 192.321
11.952 10.13 192.40199
12.0893 10.1328 192.45399
12.2253 10.1345 192.487
12.3615 10.1363 192.521
12.5018 10.1414 192.618
12.64 10.1447 192.681
12.7798 10.1492 192.76601
12.9202 10.154 192.858
13.0607 10.1589 192.95
13.1982 10.1614 192.99699
13.3372 10.1649 193.064
13.4762 10.1684 193.131
13.6164 10.1727 193.21201
13.7581 10.1779 193.313
13.8956 10.1801 193.354
14.0357 10.1841 193.429
14.1763 10.1884 193.50999
14.319 10.1941 193.619
14.4595 10.1981 193.69501
14.7425 10.2073 193.87
14.8824 10.2107 193.93401
15.0268 10.2171 194.05499
15.1733 10.2247 194.201
15.3161 10.2298 194.298
15.4641 10.2383 194.459
15.6091 10.2446 194.57899
15.7579 10.2533 194.744
15.9104 10.2642 194.951
16.058901 10.2724 195.106
16.209801 10.282 195.28799
16.363001 10.2928 195.493
16.519199 10.3054 195.733
16.6761 10.3181 195.97501
16.8353 10.3321 196.241
17.001301 10.35 196.58
17.1693 10.3688 196.938
17.339001 10.3884 197.30901
17.509399 10.4079 197.681
17.681299 10.4282 198.065
17.856701 10.4502 198.483
2.7562301 10.4387 195.67599
2.8906801 10.4323 195.556
3.0244 10.424 195.39999
3.1578901 10.4156 195.243
3.2908001 10.4061 195.065
3.4244599 10.3996 194.94299
3.5578799 10.3929 194.81799
3.6918499 10.3883 194.731
3.8246901 10.3809 194.592
3.9577799 10.3746 194.47501
4.0908198 10.3687 194.364
4.2231302 10.3613 194.226
4.3554301 10.3544 194.097
4.4879398 10.3484 193.98399
4.6195102 10.3406 193.838
4.7508101 10.3327 193.69
4.8825498 10.3262 193.567
5.0141401 10.3197 193.44501
5.1460099 10.3141 193.34
5.2788701 10.3107 193.276
5.41043 10.305 193.17
5.54178 10.2992 193.061
5.6726899 10.2928 192.942
5.8049302 10.2892 192.873
5.9366398 10.2847 192.78999
6.06955 10.2825 192.74899
6.2011099 10.2782 192.66701
6.33253 10.2738 192.58501
6.4626799 10.2676 192.468
6.5934701 10.2626 192.375
6.8572998 10.2566 192.26199
6.9896402 10.2544 192.22099
7.12115 10.2511 192.159
7.2517099 10.2465 192.07401
7.3829298 10.243 192.009
7.51544 10.2415 191.979
7.64746 10.2393 191.939
7.78018 10.2381 191.916
7.91293 10.237 191.896
8.0457296 10.236 191.877
8.1783199 10.2348 191.854
8.3092299 10.2315 191.793
8.4421196 10.2308 191.778
8.5746899 10.2296 191.757
8.7075701 10.2289 191.744
8.8400297 10.2277 191.722
8.9734898 10.2277 191.722
9.1068602 10.2276 191.71899
9.2400703 10.2273 191.714
9.3729897 10.2267 191.703
9.5075598 10.2279 191.726
9.6410999 10.228 191.72701
9.7748699 10.2283 191.733
9.9106503 10.2307 191.778
10.0456 10.2321 191.80499
10.1796 10.2327 191.814
10.3137 10.2332 191.825
10.4483 10.2343 191.84399
10.583 10.2353 191.864
10.718 10.2368 191.89101
10.8564 10.2413 191.97501
10.993 10.244 192.028
11.1292 10.2464 192.07201
11.2676 10.2506 192.14999
11.4036 10.2526 192.188
11.5396 10.2546 192.22501
11.6742 10.2552 192.237
11.811 10.2579 192.287
11.9508 10.2629 192.382
12.0889 10.2665 192.44901
12.2255 10.2687 192.49001
12.3631 10.2717 192.54601
12.5023 10.2759 192.625
12.6396 10.2786 192.675
12.7793 10.283 192.758
12.9198 10.2881 192.853
13.0603 10.293 192.944
13.1995 10.2968 193.01601
13.3378 10.2998 193.073
13.4768 10.3033 193.138
13.6173 10.3079 193.224
13.7584 10.3129 193.31799
14.0382 10.3206 193.463
14.1791 10.3252 193.549
14.3227 10.3316 193.668
14.6051 10.3406 193.838
14.7465 10.3451 193.923
14.8861 10.3484 193.983
15.0297 10.3543 194.09399
15.1779 10.3632 194.25999
15.3213 10.3687 194.364
15.4694 10.3773 194.52499
15.614 10.3834 194.63901
15.7637 10.3928 194.815
15.9129 10.4016 194.981
16.063499 10.4112 195.162
16.216 10.422 195.362
16.3687 10.4326 195.562
16.5268 10.4465 195.82201
16.6859 10.4608 196.09
16.849199 10.4774 196.40199
17.018499 10.4975 196.77901
17.1894 10.5183 197.168
17.3575 10.537 197.519
17.528799 10.5573 197.89999
17.707399 10.5817 198.358
17.879999 10.6022 198.741
2.7583001 10.5829 195.823
2.8915901 10.5718 195.618
3.0251 10.5625 195.446
3.15838 10.5532 195.274
3.2916 10.5445 195.112
3.42483 10.5365 194.964
3.5585499 10.5306 194.855
3.69227 10.5251 194.75301
3.8248601 10.5169 194.601
3.95807 10.5109 194.49001
4.0911899 10.505 194.382
4.2235498 10.4977 194.246
4.35603 10.4911 194.12399
4.4879098 10.4834 193.98199
4.6202402 10.4773 193.869
4.7513299 10.4688 193.711
4.8829699 10.4619 193.58299
5.01476 10.4557 193.46899
5.1461301 10.449 193.34399
5.2786598 10.4449 193.269
5.4100099 10.4387 193.155
5.54142 10.4329 193.048
5.6726298 10.4271 192.94
5.8047099 10.4231 192.866
5.9359999 10.4179 192.769
6.0676899 10.4136 192.69
6.1998401 10.4102 192.62801
6.3311701 10.4057 192.54401
6.4612398 10.3993 192.425
6.59198 10.3942 192.33099
6.7234402 10.3905 192.26199
6.8552198 10.3873 192.20399
6.9874701 10.385 192.161
7.11866 10.3813 192.092
7.2494998 10.3771 192.015
7.3812599 10.3744 191.965
7.5132098 10.3721 191.922
7.6448498 10.3694 191.873
7.7782502 10.3692 191.869
7.9109602 10.3681 191.84801
8.0436497 10.367 191.827
8.1771402 10.3669 191.826
8.30721 10.3626 191.746
8.4394102 10.361 191.717
8.5721302 10.3601 191.7
8.7048101 10.3592 191.683
8.8375902 10.3584 191.66901
8.9707603 10.3581 191.66299
9.1048298 10.3588 191.677
9.2377796 10.3583 191.66701
9.3705397 10.3576 191.653
9.5043802 10.358 191.661
9.6371498 10.3573 191.649
9.9065504 10.36 191.698
10.0416 10.3617 191.729
10.1746 10.3612 191.72
10.3086 10.3617 191.73
10.4429 10.3626 191.745
10.5781 10.3642 191.776
10.7134 10.366 191.808
10.8521 10.3709 191.89999
10.9898 10.3748 191.972
11.1262 10.3774 192.019
11.2653 10.3823 192.11099
11.4018 10.3848 192.158
11.5381 10.3871 192.2
11.6727 10.3879 192.214
11.8106 10.3914 192.27901
11.9497 10.396 192.36501
12.0871 10.399 192.42
12.225 10.4023 192.481
12.3627 10.4055 192.539
12.4997 10.408 192.586
12.6387 10.412 192.66
12.7773 10.4157 192.729
12.9178 10.4208 192.823
13.0597 10.4269 192.936
13.2002 10.4318 193.026
13.3386 10.435 193.08501
13.4768 10.4378 193.138
13.6171 10.4423 193.222
13.7601 10.4488 193.34
13.8981 10.4513 193.388
14.0406 10.4572 193.49699
14.1828 10.4627 193.599
14.3256 10.4686 193.70799
14.4666 10.4731 193.791
14.6088 10.4783 193.88699
14.7486 10.4817 193.95
14.8906 10.4866 194.041
15.0337 10.4922 194.145
15.1828 10.5019 194.323
15.3262 10.5075 194.427
15.4719 10.5145 194.55701
15.6178 10.5215 194.687
15.7691 10.532 194.881
15.9185 10.5411 195.05
16.070999 10.5521 195.25301
16.222 10.5619 195.43401
16.376301 10.5737 195.653
16.535 10.5881 195.92
16.6966 10.6042 196.216
16.866899 10.6254 196.608
17.037701 10.6466 197.00101
17.2078 10.667 197.379
17.378401 10.6874 197.757
17.5546 10.7109 198.192
17.7327 10.7352 198.64101
3.0265601 10.7038 195.53999
3.2927101 10.684 195.17799
3.5594399 10.669 194.90401
3.69261 10.6617 194.771
3.82548 10.6541 194.632
3.95859 10.6477 194.515
4.2241402 10.6345 194.27299
4.3569798 10.6286 194.166
4.4882798 10.6194 193.99899
4.6206799 10.6133 193.88699
4.7514901 10.604 193.717
4.8828502 10.5965 193.57899
5.01511 10.5912 193.48199
5.1464801 10.5843 193.35699
5.2785401 10.5793 193.26401
5.4096098 10.5725 193.14
5.54105 10.5667 193.035
5.6719699 10.5603 192.918
5.8041301 10.5564 192.847
5.93468 10.5498 192.726
6.0660801 10.545 192.638
6.32934 10.5367 192.48801
6.4597201 10.5308 192.38
6.7220001 10.5221 192.22099
6.8537698 10.519 192.16299
6.9856901 10.5162 192.112
7.1171498 10.5128 192.05099
7.2480102 10.5087 191.976
7.3794999 10.5057 191.92
7.5114899 10.5034 191.87801
7.6427302 10.5002 191.82001
7.7758698 10.4996 191.81
7.9093399 10.4996 191.80901
8.0417604 10.4981 191.782
8.1747599 10.4975 191.77
8.3058205 10.4944 191.714
8.4377203 10.4924 191.67799
8.5707302 10.4919 191.66901
8.7027397 10.4902 191.638
8.8355398 10.4895 191.62399
8.9682798 10.4887 191.61
9.1023197 10.4895 191.62399
9.2355099 10.4892 191.62
9.5003796 10.4871 191.58099
9.63344 10.4868 191.575
9.7672796 10.4873 191.584
10.3051 10.4917 191.664
10.4385 10.4916 191.664
10.5731 10.4928 191.686
10.7097 10.4959 191.742
10.8474 10.5 191.817
10.9845 10.5034 191.879
11.1218 10.5069 191.942
11.2604 10.5116 192.028
11.3978 10.515 192.091
11.671 10.5202 192.185
11.8092 10.5241 192.257
11.9472 10.5278 192.32401
12.0858 10.5319 192.399
12.2232 10.5348 192.453
12.3615 10.5386 192.522
12.6373 10.5451 192.64
12.7763 10.5491 192.714
12.9174 10.5547 192.81599
13.0595 10.5611 192.933
13.1999 10.566 193.022
13.3382 10.5691 193.078
13.4767 10.5723 193.138
13.6185 10.578 193.242
13.7623 10.5851 193.37199
13.9019 10.5889 193.44099
14.0441 10.5946 193.545
14.1864 10.6003 193.649
14.3295 10.6064 193.761
14.4701 10.6106 193.836
14.6122 10.6158 193.93201
14.7526 10.6197 194.002
14.8951 10.625 194.10001
15.0406 10.6323 194.23399
15.1891 10.6417 194.405
15.3307 10.646 194.483
15.4775 10.6539 194.627
15.6231 10.6607 194.75301
15.7762 10.6726 194.96899
15.9256 10.6818 195.13699
16.077 10.6921 195.326
16.226601 10.7011 195.49001
16.3864 10.7166 195.774
16.546 10.7317 196.05
16.713499 10.7517 196.41499
16.8834 10.7728 196.80099
17.0553 10.7949 197.205
17.2295 10.8181 197.627
17.402599 10.8402 198.032
17.5812 10.8654 198.492
3.16085 10.8337 195.42599
3.29374 10.8233 195.239
3.4267499 10.8142 195.07401
3.5601799 10.807 194.944
3.6930399 10.7987 194.79401
3.82636 10.7922 194.677
3.95946 10.7856 194.558
4.09235 10.7789 194.437
4.2247701 10.7714 194.302
4.3572698 10.7645 194.17799
4.4885802 10.7553 194.011
4.6209502 10.749 193.899
4.7515202 10.7391 193.71899
4.8832698 10.7322 193.59599
5.0152798 10.7263 193.489
5.1469302 10.72 193.37399
5.2781701 10.7131 193.25101
5.4095802 10.7069 193.13901
5.5405302 10.7002 193.017
5.6712298 10.6932 192.892
5.8028202 10.6883 192.80299
5.9334898 10.6819 192.688
6.0647402 10.6768 192.59599
6.1970601 10.6738 192.541
6.3275499 10.6678 192.433
6.45788 10.6618 192.325
6.58917 10.6576 192.24899
6.7199101 10.6527 192.161
6.8521099 10.6503 192.117
6.9842801 10.6479 192.07401
7.1160898 10.645 192.022
7.2463298 10.64 191.931
7.3769498 10.6356 191.853
7.5098901 10.6348 191.83701
7.6415801 10.6322 191.791
7.7743902 10.6312 191.774
7.9072399 10.6303 191.758
8.04006 10.6295 191.742
8.17307 10.6288 191.731
8.3044205 10.6261 191.68201
8.4362297 10.6241 191.645
8.5691299 10.6234 191.633
8.7011604 10.6218 191.603
8.8337698 10.6208 191.586
8.9665003 10.6201 191.57201
9.1009998 10.6214 191.59599
9.3650103 10.6183 191.53999
9.4975796 10.6174 191.524
9.6306105 10.6171 191.51801
9.7647696 10.618 191.535
9.9002304 10.6203 191.576
10.0354 10.6221 191.61
10.1688 10.6221 191.61
10.3016 10.6216 191.60001
10.4359 10.6225 191.616
10.5693 10.6225 191.617
10.7058 10.6256 191.673
10.98 10.6327 191.80099
11.1182 10.6371 191.88
11.2553 10.6405 191.94099
11.3932 10.6445 192.013
11.5315 10.6488 192.09
11.6685 10.6517 192.144
11.8064 10.6555 192.21201
11.9449 10.6597 192.287
12.0853 10.6654 192.39101
12.2227 10.6685 192.446
12.361 10.6722 192.513
12.498 10.6748 192.55901
12.6364 10.6785 192.62601
12.7772 10.6841 192.72701
12.9195 10.6908 192.84801
13.0605 10.6963 192.94701
13.2001 10.7006 193.02499
13.3375 10.703 193.06799
13.4774 10.7074 193.147
13.621 10.7146 193.27699
13.7641 10.7213 193.39799
13.9036 10.725 193.465
14.046 10.7309 193.571
14.1884 10.7367 193.675
14.3327 10.7438 193.804
14.4753 10.7494 193.90601
14.6171 10.7545 193.99699
14.7591 10.7595 194.088
14.9024 10.7654 194.19501
15.0502 10.7745 194.35699
15.1965 10.7823 194.49899
15.337 10.7859 194.564
15.4843 10.7942 194.713
15.6305 10.8015 194.845
15.7843 10.8139 195.069
15.9324 10.8223 195.22099
16.087 10.8349 195.44701
16.239901 10.8462 195.651
16.401501 10.863 195.95399
16.562901 10.8794 196.25
16.7299 10.8991 196.606
16.9027 10.9224 197.026
17.0844 10.951 197.541
17.256201 10.9727 197.93401
17.433201 10.9975 198.381
17.6117 11.0227 198.836
18.340599 11.3013 203.86099
3.4282501 10.9548 195.159
3.5611801 10.9458 194.99899
3.6940401 10.9373 194.84599
3.96017 10.923 194.593
4.09232 10.9142 194.435
4.2250299 10.9074 194.314
4.3571501 10.8995 194.173
4.4886799 10.8907 194.01601
4.6204801 10.883 193.879
4.7515402 10.874 193.71899
4.8834 10.8674 193.601
5.0149398 10.8603 193.476
5.14714 10.8551 193.382
5.2779398 10.8472 193.242
5.40906 10.8404 193.121
5.5399599 10.8335 192.99699
5.67103 10.8272 192.886
5.80163 10.8204 192.76401
5.9323802 10.8141 192.65199
6.0640802 10.8098 192.575
6.1960001 10.806 192.508
6.3263502 10.7998 192.397
6.45643 10.7933 192.282
6.5875301 10.7888 192.202
6.7178798 10.7833 192.103
6.8501501 10.781 192.062
6.9826002 10.779 192.02699
7.1141601 10.7758 191.97
7.2451901 10.7719 191.901
7.3748999 10.7663 191.8
7.5078602 10.7655 191.786
7.6401601 10.7638 191.755
7.77279 10.7626 191.73399
7.9060102 10.7622 191.728
8.0383396 10.7607 191.701
8.17068 10.7592 191.675
8.3026505 10.7573 191.64101
8.4349298 10.7559 191.61501
8.5676603 10.7551 191.60001
8.6995697 10.7532 191.56799
8.8318796 10.752 191.545
8.96556 10.7524 191.552
9.2331305 10.7534 191.57001
9.3645401 10.7511 191.53
9.4961996 10.7493 191.49699
9.6290302 10.7487 191.487
9.7631598 10.7496 191.50301
9.8978596 10.7511 191.53
10.0313 10.7513 191.532
10.1658 10.7524 191.55299
10.2995 10.7528 191.56
10.4332 10.7532 191.567
10.5676 10.7542 191.586
10.7031 10.7564 191.62399
10.8399 10.7598 191.685
10.9755 10.7619 191.722
11.1155 10.7682 191.834
11.2527 10.7717 191.896
11.3909 10.776 191.974
11.5291 10.7803 192.05
11.6662 10.7835 192.10699
11.8045 10.7877 192.181
11.943 10.7919 192.256
12.0826 10.7971 192.349
12.221 10.801 192.418
12.3589 10.8045 192.48
12.4965 10.8076 192.537
12.6361 10.8124 192.621
12.7776 10.8187 192.733
12.9202 10.8257 192.85899
13.0612 10.8313 192.95799
13.2002 10.8352 193.02699
13.3381 10.838 193.077
13.4789 10.8431 193.16901
13.6218 10.8498 193.28799
13.765 10.8566 193.41
13.9045 10.8604 193.47701
14.047 10.8665 193.586
14.1898 10.8726 193.69501
14.334 10.8798 193.82201
14.4791 10.8874 193.95799
14.6218 10.8931 194.06
14.7656 10.8996 194.174
14.9095 10.9059 194.287
15.0576 10.9152 194.453
15.2 10.9203 194.54401
15.3452 10.9272 194.668
15.4901 10.9338 194.785
15.6403 10.944 194.967
15.7945 10.9569 195.196
15.9463 10.9679 195.39101
16.0986 10.9789 195.588
16.2533 10.9915 195.812
16.415701 11.009 196.12399
16.5807 11.0279 196.461
16.7507 11.0498 196.851
16.930201 11.0776 197.347
17.110399 11.1054 197.842
17.2834 11.1281 198.246
18.1227 11.3955 203.00999
18.4209 11.4934 204.75301
3.5625899 11.0861 195.076
3.6961401 11.0793 194.957
3.8288901 11.0707 194.806
3.9616499 11.0627 194.666
4.0936599 11.0533 194.49899
4.2259498 11.0451 194.356
4.3582201 11.0375 194.22099
4.48915 11.027 194.036
4.6205702 11.0182 193.883
4.7519102 11.0098 193.735
4.8835702 11.0026 193.60699
5.01474 10.9947 193.468
5.1466999 10.9889 193.366
5.2783599 10.9827 193.258
5.4089398 10.9747 193.116
5.5397501 10.9675 192.99001
5.6703501 10.9602 192.862
5.80088 10.9532 192.73801
5.9307599 10.9453 192.599
6.1947699 10.938 192.47
6.3249102 10.9313 192.353
6.45613 10.9268 192.27299
6.5868201 10.9215 192.181
6.7176399 10.9167 192.09599
6.8496099 10.9139 192.047
7.1126599 10.9072 191.92999
7.2442398 10.9042 191.87601
7.3747001 10.8996 191.795
7.50738 10.8984 191.77299
7.6382298 10.8946 191.707
7.77174 10.8947 191.70799
7.9049401 10.8943 191.702
8.0368605 10.8922 191.66499
8.1687698 10.8902 191.63
8.3008499 10.8885 191.599
8.4345903 10.8889 191.60699
8.5672903 10.888 191.592
8.6988802 10.8858 191.55299
8.8305302 10.8837 191.51601
9.0977402 10.8844 191.528
9.2307501 10.884 191.521
9.3641396 10.8841 191.522
9.4962101 10.8826 191.49699
9.62745 10.8803 191.45599
9.76126 10.8809 191.466
9.8971596 10.8838 191.51601
10.0301 10.8834 191.509
10.1626 10.8825 191.494
10.2973 10.8839 191.52
10.4317 10.885 191.539
10.5654 10.8854 191.545
10.7003 10.887 191.573
10.8387 10.8921 191.66299
10.9757 10.8956 191.72501
11.1126 10.899 191.784
11.2498 10.9025 191.847
11.387 10.9061 191.909
11.5266 10.9117 192.008
11.6648 10.916 192.08299
11.8023 10.9195 192.145
11.941 10.9239 192.224
12.0818 10.9303 192.33501
12.2207 10.9348 192.414
12.358 10.9378 192.467
12.4959 10.9412 192.52699
12.6358 10.9462 192.616
12.7769 10.9523 192.72301
12.9203 10.9601 192.86
13.0611 10.9656 192.957
13.2005 10.9698 193.03101
13.3384 10.9727 193.082
13.4801 10.9787 193.186
13.6229 10.9854 193.30499
13.7665 10.9925 193.431
13.9077 10.9977 193.522
14.0492 11.003 193.61501
14.1938 11.0107 193.74899
14.3386 11.0183 193.884
14.484 11.0262 194.02299
14.6276 11.0327 194.13699
14.7712 11.039 194.248
14.9154 11.0456 194.364
15.0643 11.0556 194.53999
15.2074 11.0612 194.638
15.352 11.0677 194.754
15.4998 11.0765 194.907
15.6535 11.0892 195.131
15.804 11.0995 195.313
16.111401 11.124 195.744
16.2714 11.1403 196.03
16.432899 11.1572 196.32899
16.6015 11.1788 196.70799
16.779301 11.206 197.187
17.1387 11.2618 198.16901
18.232 11.6065 204.23399
18.4247 11.6384 204.79601
3.56373 11.2255 195.138
3.6969299 11.2175 194.99899
3.8294101 11.2079 194.832
3.9621 11.1996 194.688
4.0942898 11.1905 194.52901
4.22685 11.1829 194.397
4.3587399 11.1741 194.244
4.48946 11.1629 194.05
4.62112 11.1546 193.90601
4.75212 11.1452 193.743
4.8838301 11.138 193.618
5.0149498 11.1299 193.476
5.1463099 11.1227 193.351
5.2772999 11.1151 193.21899
5.40801 11.1073 193.08299
5.539 11.1004 192.964
5.6689501 11.0919 192.815
5.8000498 11.0859 192.711
5.9301901 11.0784 192.58
6.0612102 11.0728 192.48399
6.1932502 11.0693 192.423
6.3240299 11.0637 192.326
6.4551401 11.059 192.244
6.5859098 11.0538 192.15401
6.71662 11.0488 192.067
6.84833 11.0456 192.011
6.9797502 11.042 191.94901
7.1119499 11.0398 191.911
7.2435498 11.0368 191.858
7.3742599 11.0325 191.783
7.5057602 11.0296 191.73199
7.6374698 11.027 191.688
7.77036 11.0262 191.674
7.9033799 11.0257 191.664
8.0359898 11.0245 191.645
8.1679697 11.0226 191.61099
8.2996798 11.0204 191.57201
8.4334698 11.0209 191.582
8.5668402 11.0209 191.582
8.6988497 11.0192 191.552
8.8304701 11.017 191.515
8.9634104 11.0166 191.506
9.0968199 11.0167 191.508
9.2309999 11.0177 191.526
9.3640003 11.0173 191.519
9.4955797 11.0153 191.48399
9.6256704 11.0116 191.42
9.7593498 11.0121 191.42799
9.8946695 11.0144 191.468
10.03 11.0167 191.508
10.1622 11.0154 191.48599
10.2942 11.014 191.46201
10.4288 11.0154 191.48599
10.5637 11.0171 191.515
10.6994 11.0196 191.558
10.8358 11.0226 191.61099
10.973 11.0265 191.67799
11.109 11.029 191.72301
11.2467 11.0331 191.79401
11.3828 11.0357 191.839
11.523 11.042 191.948
11.6618 11.047 192.035
11.7996 11.0508 192.101
11.9397 11.0566 192.203
12.08 11.0626 192.306
12.2187 11.067 192.383
12.3564 11.0704 192.44099
12.4947 11.0743 192.509
12.6345 11.0793 192.597
12.7762 11.0859 192.711
12.92 11.0942 192.855
13.0607 11.0997 192.951
13.2006 11.1044 193.032
13.3392 11.1078 193.093
13.481 11.114 193.19901
13.625 11.1217 193.334
13.7681 11.1286 193.453
13.9098 11.1342 193.552
14.0513 11.1396 193.644
14.1968 11.148 193.78999
14.3405 11.1548 193.91
14.4876 11.1642 194.07201
14.6319 11.1712 194.194
14.7766 11.1784 194.319
14.9199 11.1844 194.423
15.0692 11.1947 194.603
15.2141 11.2017 194.724
15.3601 11.2093 194.85699
15.5126 11.2215 195.06799
15.665 11.2334 195.27499
15.8155 11.2438 195.455
15.9732 11.259 195.72099
16.1287 11.2724 195.95399
16.6294 11.3348 197.03799
16.808901 11.3634 197.535
16.992399 11.3942 198.071
17.1703 11.4208 198.534
18.253 11.7623 204.46899
18.4245 11.7809 204.793
3.8336201 11.3561 195.047
4.0953398 11.3289 194.57899
4.2274199 11.3198 194.424
4.3589501 11.3099 194.254
4.4899302 11.2992 194.07001
4.6217499 11.2912 193.93201
4.8844299 11.2743 193.64101
5.0159202 11.2668 193.51401
5.14674 11.2583 193.367
5.2772598 11.2496 193.217
5.4078302 11.2414 193.077
5.5387902 11.2344 192.957
5.66819 11.2246 192.789
5.8000302 11.2201 192.71001
5.93049 11.2131 192.59
6.0605602 11.2057 192.463
6.1926999 11.2023 192.40601
6.3234701 11.1967 192.30901
6.4545102 11.1918 192.22501
6.5852499 11.1866 192.13499
6.71627 11.182 192.05701
6.84764 11.1782 191.992
6.9795299 11.1754 191.94299
7.1113501 11.1726 191.894
7.2428999 11.1694 191.84
7.3737602 11.1653 191.771
7.5049601 11.1619 191.71201
7.6370802 11.16 191.67799
7.7693601 11.1583 191.64999
7.90241 11.1578 191.64101
8.0350504 11.1567 191.62199
8.1668701 11.1546 191.58501
8.2989902 11.1529 191.556
8.43223 11.1527 191.554
8.5661602 11.1535 191.567
8.6978397 11.1513 191.53
8.8305302 11.1505 191.51601
8.96315 11.1496 191.50101
9.0958796 11.1489 191.48801
9.2310801 11.1512 191.528
9.3621302 11.1485 191.481
9.49471 11.1477 191.467
9.62603 11.1454 191.427
9.75844 11.1444 191.411
9.8933897 11.1463 191.444
10.03 11.1501 191.508
10.1633 11.15 191.507
10.2932 11.1463 191.444
10.4271 11.147 191.455
10.5629 11.1497 191.50101
10.6984 11.1519 191.53999
10.8335 11.1537 191.571
10.9702 11.1571 191.629
11.107 11.1605 191.688
11.2431 11.1632 191.733
11.3806 11.1671 191.8
11.5191 11.172 191.884
11.6582 11.1772 191.974
11.7962 11.1814 192.045
11.9376 11.1886 192.16901
12.0771 11.1939 192.261
12.2152 11.1978 192.328
12.3548 11.203 192.416
12.4937 11.2074 192.492
12.6348 11.2137 192.601
12.7768 11.2207 192.72099
12.9199 11.2284 192.854
13.062 11.2351 192.96899
13.2017 11.2397 193.048
13.3413 11.2441 193.12399
13.4837 11.2508 193.23801
13.6296 11.2602 193.399
13.7706 11.2654 193.489
13.9118 11.2707 193.57899
14.0525 11.2754 193.661
14.2004 11.2858 193.839
14.3444 11.2929 193.96201
14.4918 11.3026 194.12801
14.6378 11.311 194.272
14.7839 11.3193 194.41499
14.9293 11.3269 194.54601
15.0772 11.3363 194.707
15.2224 11.3435 194.83
15.372 11.3538 195.008
15.5273 11.3681 195.25301
15.6766 11.3778 195.42
15.8321 11.3918 195.661
15.9935 11.4098 195.968
16.3146 11.4437 196.55099
16.4881 11.4692 196.989
16.6642 11.496 197.45
16.845699 11.5261 197.967
17.8895 11.8525 203.57201
18.0874 11.8894 204.207
18.2537 11.9051 204.47701
18.4238 11.9231 204.786
4.2284002 11.4579 194.46899
4.3599501 11.4478 194.298
4.4910898 11.4373 194.12
4.6223402 11.4277 193.957
4.7529802 11.4172 193.778
4.8842802 11.4088 193.63499
5.0164499 11.4028 193.534
5.1475 11.3947 193.396
5.2775798 11.3849 193.229
5.4079399 11.3761 193.08099
5.5383301 11.3679 192.94099
5.6682501 11.359 192.791
5.7995801 11.3534 192.69501
5.9296498 11.3456 192.563
6.0602398 11.3391 192.453
6.1932201 11.3373 192.422
6.3239102 11.3314 192.323
6.4542699 11.3253 192.218
6.5854402 11.3207 192.14
6.7163301 11.3159 192.058
6.8474998 11.3117 191.987
6.9792399 11.3086 191.935
7.11096 11.3056 191.884
7.2427301 11.3028 191.836
7.37393 11.2992 191.77499
7.5051398 11.2957 191.716
7.6371598 11.2936 191.67999
7.76933 11.2917 191.649
7.90204 11.2907 191.632
8.0342999 11.2891 191.604
8.1665401 11.2875 191.577
8.2989998 11.2863 191.55701
8.4322901 11.2862 191.55499
8.5657301 11.2863 191.55701
8.6968298 11.2834 191.507
8.8297901 11.283 191.5
8.96315 11.283 191.50101
9.0952101 11.2815 191.474
9.2311497 11.2847 191.52901
9.3614302 11.281 191.467
9.4949503 11.2813 191.47099
9.62712 11.28 191.44901
9.7590504 11.2784 191.423
9.8940697 11.2804 191.457
10.0294 11.2827 191.495
10.1637 11.2838 191.515
10.2944 11.281 191.466
10.4248 11.2778 191.41299
10.5636 11.2838 191.51401
10.6977 11.2845 191.526
10.8327 11.2863 191.556
10.9672 11.2875 191.577
11.1049 11.2919 191.651
11.2416 11.2952 191.707
11.3794 11.2995 191.78
11.5171 11.3036 191.85001
11.6561 11.3089 191.94
11.7942 11.3132 192.013
11.9357 11.3207 192.14
12.0754 11.3262 192.233
12.2133 11.33 192.298
12.3536 11.3359 192.39799
12.4941 11.3418 192.49899
12.6359 11.3488 192.618
12.7783 11.3563 192.744
12.9215 11.3642 192.87801
13.0631 11.3706 192.98599
13.2037 11.3759 193.078
13.3428 11.38 193.146
13.4852 11.3866 193.259
13.6318 11.3967 193.42999
13.7727 11.4018 193.517
13.9141 11.4074 193.612
14.0554 11.4127 193.701
14.2043 11.424 193.89301
14.3479 11.4309 194.00999
14.4971 11.442 194.19901
14.644 11.4512 194.355
14.7911 11.4603 194.509
14.9401 11.4708 194.687
15.0871 11.4794 194.834
15.2354 11.489 194.996
15.3856 11.4998 195.17999
15.541 11.5142 195.425
15.6954 11.5277 195.65401
15.8547 11.5446 195.94
16.176399 11.5796 196.534
16.5186 11.6278 197.353
16.6954 11.6554 197.82001
17.364401 11.8296 200.778
17.7297 11.9821 203.36501
17.924 12.0174 203.965
18.0861 12.0308 204.19299
18.254601 12.0482 204.48801
18.4259 12.0671 204.80901
4.4917898 11.5744 194.14999
4.62321 11.565 193.993
4.7540798 11.5548 193.823
4.8846102 11.5445 193.649
5.0162902 11.5372 193.528
5.14678 11.5278 193.369
5.2772799 11.5188 193.218
5.4085698 11.5119 193.103
5.5388498 11.5033 192.959
5.6687198 11.4943 192.80701
5.7992101 11.4869 192.683
5.9296398 11.4797 192.563
6.0604801 11.4736 192.461
6.1932702 11.4714 192.424
6.3238301 11.4653 192.32001
6.45474 11.46 192.23199
6.5859199 11.4554 192.155
6.71667 11.4502 192.06799
6.8474302 11.4453 191.98599
6.9790201 11.4419 191.929
7.1106 11.4387 191.87399
7.2428002 11.4365 191.838
7.3745399 11.4337 191.791
7.50528 11.4295 191.72
7.6383901 11.4289 191.711
7.77 11.4262 191.66499
7.9022498 11.4245 191.63699
8.0340099 11.4222 191.597
8.1664305 11.4208 191.575
8.29916 11.42 191.56
8.4319096 11.4191 191.54601
8.5655804 11.4196 191.554
8.6970396 11.4171 191.51199
8.8291502 11.4155 191.48599
8.9629202 11.4161 191.496
9.0958796 11.4157 191.48801
9.2301197 11.4168 191.508
9.3618298 11.4149 191.47501
9.4948597 11.4145 191.46899
9.6272402 11.4135 191.451
9.7599096 11.4128 191.439
9.8944998 11.4143 191.465
10.0292 11.4159 191.492
10.1634 11.4168 191.508
10.2957 11.4158 191.49001
10.4238 11.4101 191.395
10.5628 11.4163 191.49899
10.6972 11.4174 191.517
10.8325 11.4196 191.554
10.9678 11.4216 191.58701
11.1038 11.4242 191.632
11.2417 11.4288 191.709
11.377 11.4307 191.74001
11.5165 11.4367 191.841
11.6549 11.4414 191.92
11.7929 11.4457 191.992
11.9345 11.4533 192.12
12.0739 11.4586 192.209
12.2117 11.4625 192.27299
12.352 11.4684 192.373
12.4936 11.4754 192.491
12.6354 11.4826 192.61099
12.7797 11.4917 192.76401
12.923 11.4998 192.89999
13.0647 11.5064 193.00999
13.2054 11.5119 193.10201
13.345 11.5164 193.17799
13.6341 11.5334 193.464
13.7759 11.5393 193.563
13.9183 11.5457 193.67
14.0614 11.5525 193.783
14.2082 11.5622 193.946
14.3526 11.5698 194.073
14.5031 11.5821 194.27901
14.6513 11.5923 194.451
14.798 11.6012 194.601
14.9509 11.6147 194.827
15.0981 11.6237 194.97701
15.2495 11.6356 195.177
15.4015 11.6478 195.381
15.559 11.6639 195.65199
15.7209 11.683 195.972
15.882 11.7011 196.27699
16.387501 11.7698 197.429
16.561001 11.7955 197.86
17.570999 12.1119 203.16701
17.762699 12.1463 203.743
17.928301 12.1624 204.01401
18.088499 12.1747 204.22
18.253799 12.1901 204.479
18.426901 12.2105 204.821
4.75594 11.6944 193.899
4.8859401 11.6825 193.701
5.01723 11.6742 193.564
5.1475201 11.6641 193.396
5.2779999 11.655 193.245
5.5399299 11.64 192.996
5.7993999 11.6215 192.689
5.93015 11.6148 192.57899
6.0613999 11.6094 192.49001
6.19381 11.6065 192.44
6.3245902 11.6006 192.343
6.4555001 11.5952 192.254
6.58634 11.59 192.16701
6.7171998 11.5849 192.084
6.8478098 11.5797 191.996
6.9787698 11.5752 191.922
7.11057 11.5723 191.873
7.243 11.5704 191.843
7.3747501 11.5676 191.79601
7.50564 11.5636 191.729
7.63907 11.5635 191.728
7.7702699 11.5601 191.672
7.9023299 11.5581 191.63901
8.0349302 11.557 191.619
8.1679201 11.5564 191.61
8.2993603 11.5537 191.565
8.4318504 11.5525 191.545
8.5662003 11.5538 191.56799
8.69841 11.5523 191.54201
8.8306799 11.5509 191.519
8.9650297 11.5522 191.541
9.0966396 11.55 191.504
9.2291803 11.549 191.48801
9.3619499 11.5484 191.47701
9.4960299 11.5493 191.493
9.6288204 11.5487 191.483
9.7623196 11.549 191.487
9.8955297 11.5488 191.485
10.0304 11.5507 191.515
10.1624 11.5491 191.49001
10.2939 11.5471 191.45599
10.4256 11.5453 191.42599
10.5625 11.5493 191.493
10.6975 11.5512 191.524
10.8325 11.553 191.55299
