# .PCD v0.7 - Point Cloud Data file format
VERSION 0.7
FIELDS x y z
SIZE 4 4 4
TYPE F F F
COUNT 1 1 1
WIDTH 1791
HEIGHT 1
VIEWPOINT 0 0 0 1 0 0 0
POINTS 1791
DATA ascii
0.85141402 -16.5916 196.198
0.98652399 -16.566799 195.90601
1.12143 -16.545099 195.64799
1.52273 -16.466101 194.715
1.7895 -16.4263 194.244
1.9224401 -16.4069 194.01401
2.0559399 -16.3944 193.866
2.1896601 -16.385099 193.756
2.32321 -16.3757 193.645
2.4567201 -16.3671 193.543
2.5896699 -16.355801 193.41
2.7223001 -16.3437 193.267
2.98739 -16.321899 193.009
3.11905 -16.3078 192.842
3.2506599 -16.2945 192.686
3.3812499 -16.2775 192.48399
3.5120499 -16.262699 192.30901
3.64361 -16.2523 192.186
3.7751601 -16.242701 192.07201
4.0390201 -16.228399 191.903
4.1712499 -16.223 191.84
4.3034201 -16.217899 191.77901
4.4355001 -16.2127 191.717
4.5684199 -16.210699 191.694
4.7012401 -16.2085 191.66901
4.8335299 -16.2047 191.62399
4.9668999 -16.204599 191.62199
5.0996099 -16.202499 191.597
5.23347 -16.203899 191.614
5.3673201 -16.205299 191.631
5.5007901 -16.2055 191.633
5.6347098 -16.207001 191.64999
5.7691398 -16.209801 191.68401
5.9033399 -16.211901 191.70799
6.0378399 -16.214701 191.741
6.1719899 -16.216499 191.76199
6.3062 -16.2183 191.784
6.4401102 -16.219299 191.79601
6.5739398 -16.2201 191.80499
6.7077398 -16.220699 191.813
6.83921 -16.2159 191.755
6.97224 -16.2148 191.742
7.1044698 -16.211901 191.709
7.2367101 -16.2092 191.67599
7.3699398 -16.208799 191.67101
7.5024199 -16.206699 191.647
7.6340699 -16.2029 191.60201
7.7671599 -16.202299 191.595
7.8989 -16.198999 191.55499
8.03269 -16.1999 191.56599
8.1666002 -16.200899 191.57899
8.2990103 -16.1991 191.55701
8.5640202 -16.1959 191.519
8.6956902 -16.192801 191.48199
8.8273802 -16.1898 191.44701
8.9600601 -16.1887 191.435
9.0930595 -16.188299 191.429
9.2260704 -16.187799 191.424
9.3583097 -16.1861 191.403
9.4907799 -16.1847 191.38699
9.6234798 -16.183901 191.377
9.7564402 -16.183399 191.371
9.8899097 -16.1838 191.37601
10.0244 -16.1859 191.401
10.1602 -16.190001 191.44901
10.2986 -16.198 191.54401
10.437 -16.205799 191.636
10.5746 -16.2122 191.71201
10.7121 -16.2183 191.784
10.8486 -16.2229 191.838
10.9841 -16.2258 191.87199
11.1202 -16.2295 191.916
11.2562 -16.2328 191.95599
11.3908 -16.2342 191.972
11.5264 -16.237 192.006
11.6633 -16.2416 192.05901
11.7984 -16.243401 192.08099
11.934 -16.246 192.112
12.0714 -16.250999 192.17
12.2101 -16.2575 192.24699
12.3484 -16.2633 192.317
12.4851 -16.267 192.36
12.6216 -16.2703 192.399
12.7601 -16.276199 192.468
12.9014 -16.2854 192.577
13.0416 -16.292999 192.668
13.1823 -16.301201 192.76401
13.3223 -16.3083 192.849
13.4628 -16.315901 192.938
13.6038 -16.323999 193.034
13.7453 -16.332399 193.133
13.8859 -16.3396 193.218
14.0262 -16.3463 193.298
14.1691 -16.356001 193.41299
14.3147 -16.368601 193.561
14.4571 -16.377199 193.66299
14.6016 -16.388 193.791
14.742 -16.3941 193.86301
14.8854 -16.4034 193.97301
15.028 -16.411699 194.071
15.1759 -16.4256 194.23599
15.3257 -16.4412 194.42
15.477 -16.4582 194.621
15.7846 -16.4965 195.07401
15.9448 -16.521799 195.373
16.0994 -16.540899 195.59801
16.244101 -16.5495 195.7
16.3883 -16.5576 195.797
16.679501 -16.576 196.01401
16.829901 -16.5898 196.177
16.9751 -16.5982 196.27699
17.1138 -16.6003 196.30099
17.255199 -16.604799 196.354
17.390499 -16.603399 196.338
17.5287 -16.6049 196.356
17.674101 -16.6131 196.453
17.8209 -16.6224 196.563
18.0112 -16.672001 197.149
18.623199 -16.853201 199.29201
18.771299 -16.861601 199.39101
18.914499 -16.865499 199.437
19.065001 -16.875799 199.55901
19.2271 -16.8962 199.8
19.391701 -16.918501 200.064
19.5776 -16.9589 200.541
-0.380981 -16.591801 197.83
-0.243268 -16.592199 197.836
-0.105519 -16.5882 197.787
0.0321326 -16.5686 197.55299
0.16942801 -16.546 197.284
0.44303101 -16.505899 196.806
0.57921398 -16.4825 196.52699
0.71512699 -16.4618 196.28
0.850532 -16.437901 195.995
0.98549002 -16.4132 195.7
1.1198601 -16.385799 195.37399
1.52125 -16.3146 194.52499
1.65455 -16.2938 194.27699
1.7876199 -16.274 194.041
1.92085 -16.258301 193.854
2.0545299 -16.248199 193.733
2.1877799 -16.2362 193.591
2.3212399 -16.2271 193.48199
2.4545701 -16.2181 193.37399
2.5880401 -16.210899 193.289
2.8538599 -16.1922 193.065
2.9857199 -16.1784 192.901
3.11728 -16.164301 192.73199
3.37918 -16.133499 192.366
3.51004 -16.119499 192.198
3.64132 -16.108299 192.06599
3.7732501 -16.1008 191.97501
3.90557 -16.095301 191.91
4.0370998 -16.087 191.812
4.1693802 -16.082199 191.754
4.3018198 -16.0783 191.707
4.4340901 -16.073999 191.65601
4.5672402 -16.073 191.645
4.70017 -16.0714 191.625
4.8326402 -16.0683 191.588
4.96597 -16.0681 191.586
5.09868 -16.066 191.561
5.2322402 -16.0667 191.569
5.3664498 -16.069201 191.599
5.49997 -16.069599 191.604
5.6339798 -16.0714 191.625
5.7685399 -16.0746 191.664
5.9025302 -16.0762 191.68201
6.0365 -16.0776 191.69901
6.1700501 -16.077801 191.702
6.30339 -16.077499 191.69901
6.43714 -16.0783 191.707
6.5705299 -16.0781 191.705
6.7042699 -16.0788 191.714
6.8358402 -16.0744 191.661
6.9689598 -16.0737 191.65199
7.10186 -16.0725 191.638
7.2336402 -16.068899 191.595
7.3664198 -16.0676 191.57899
7.4989901 -16.0658 191.55901
7.63059 -16.062201 191.515
7.7642398 -16.062799 191.52299
7.8962402 -16.060101 191.491
8.0298595 -16.060801 191.498
8.1630001 -16.0604 191.494
8.2948999 -16.057699 191.46201
8.4274197 -16.0562 191.444
8.55937 -16.053699 191.41499
8.6917496 -16.052099 191.396
8.8240805 -16.050501 191.37601
8.95683 -16.049601 191.366
9.0892897 -16.0483 191.35001
9.2219 -16.047199 191.33701
9.3541803 -16.0457 191.31799
9.4870005 -16.045 191.311
9.6190701 -16.0432 191.289
9.7517004 -16.042299 191.27901
9.8844805 -16.0417 191.271
10.0184 -16.042999 191.286
10.1536 -16.046101 191.32401
10.2906 -16.052099 191.395
10.427 -16.056999 191.453
10.5635 -16.061899 191.51199
10.7017 -16.069201 191.599
10.8408 -16.0776 191.69901
10.9775 -16.082399 191.756
11.1136 -16.0861 191.80099
11.25 -16.0903 191.85001
11.3844 -16.091499 191.86501
11.5207 -16.095301 191.911
11.6582 -16.1007 191.97501
11.7932 -16.102501 191.996
11.9277 -16.103701 192.00999
12.064 -16.107201 192.052
12.2023 -16.1133 192.125
12.3412 -16.120001 192.205
12.4783 -16.124201 192.255
12.6142 -16.1269 192.28799
12.7518 -16.131599 192.343
12.8926 -16.140301 192.44701
13.0337 -16.1492 192.552
13.3133 -16.163 192.718
13.4521 -16.1686 192.785
13.5931 -16.176701 192.881
13.7326 -16.182899 192.955
13.873 -16.190001 193.039
14.0173 -16.2015 193.17599
14.1603 -16.211201 193.293
14.3033 -16.2208 193.40601
14.4511 -16.2356 193.58299
14.5973 -16.248301 193.73399
14.7394 -16.256201 193.82899
14.8839 -16.266701 193.95399
15.0275 -16.275999 194.065
15.176 -16.2904 194.23599
15.3211 -16.3009 194.362
15.4703 -16.315599 194.537
15.6198 -16.330299 194.71201
15.7761 -16.351801 194.968
16.0811 -16.386 195.37601
16.369499 -16.4023 195.571
16.509001 -16.405701 195.61099
16.655899 -16.4163 195.737
16.807899 -16.4317 195.92101
16.9561 -16.4431 196.05701
17.095501 -16.445999 196.091
17.2411 -16.454599 196.194
17.378201 -16.455099 196.2
17.5161 -16.456301 196.215
17.656601 -16.4599 196.258
17.805799 -16.4716 196.397
17.9587 -16.486401 196.57401
18.1761 -16.559799 197.44901
18.414499 -16.6511 198.537
18.5984 -16.692101 199.026
18.750299 -16.704 199.168
18.892599 -16.7073 199.207
19.040701 -16.7155 199.30499
19.3591 -16.7509 199.72701
19.5334 -16.7812 200.089
-0.51867199 -16.4531 197.819
-0.38092801 -16.4517 197.802
0.0321723 -16.4513 197.797
0.169572 -16.422501 197.452
0.30649301 -16.3939 197.108
0.442938 -16.3654 196.765
0.71445203 -16.309601 196.09399
0.84977502 -16.2869 195.821
0.98462301 -16.262501 195.528
1.38651 -16.187 194.62
1.51991 -16.164801 194.353
1.65294 -16.1427 194.08701
1.78628 -16.126699 193.895
1.91956 -16.1124 193.72301
2.0529599 -16.101 193.58501
2.1863999 -16.0912 193.468
2.3197999 -16.0823 193.36099
2.4526999 -16.0711 193.22701
2.71942 -16.057501 193.062
2.85217 -16.048201 192.951
2.9837699 -16.0336 192.77499
3.11589 -16.0229 192.647
3.2464499 -16.005301 192.436
3.50788 -15.9758 192.08
3.7713201 -15.9588 191.877
3.90397 -15.9551 191.832
4.0355902 -15.9475 191.74001
4.1679201 -15.9431 191.687
4.30055 -15.9401 191.651
4.4333 -15.9377 191.62199
4.5664201 -15.9367 191.61
4.6989799 -15.9339 191.577
4.83214 -15.9332 191.56799
4.9657998 -15.9342 191.58
5.09829 -15.9314 191.547
5.2323298 -15.9335 191.57201
5.3661499 -15.9349 191.589
5.4995599 -15.935 191.59
5.6328802 -15.9348 191.588
5.7671599 -15.9373 191.618
5.9008799 -15.9382 191.629
6.0347099 -15.9393 191.642
6.16752 -15.9378 191.623
6.5668802 -15.9357 191.599
6.70081 -15.937 191.61501
6.8332801 -15.9349 191.589
6.96631 -15.9341 191.57899
7.0988202 -15.9322 191.556
7.2311702 -15.93 191.53
7.3636298 -15.9281 191.507
7.4962201 -15.9265 191.48801
7.76091 -15.9226 191.44099
7.8934102 -15.9211 191.422
8.0263901 -15.9205 191.416
8.1591797 -15.9196 191.405
8.2914801 -15.9178 191.383
8.4235401 -15.9156 191.356
8.5564299 -15.915 191.349
8.6887302 -15.9133 191.32899
8.8211699 -15.9119 191.313
8.9545403 -15.9123 191.317
9.0865297 -15.9102 191.29201
9.4836302 -15.9061 191.243
9.6158199 -15.9046 191.224
9.7476797 -15.9025 191.2
9.8800497 -15.9013 191.185
10.014 -15.9026 191.201
10.1489 -15.9055 191.235
10.2856 -15.911 191.302
10.4213 -15.9149 191.34801
10.5555 -15.9164 191.366
10.6923 -15.9218 191.431
10.8304 -15.9288 191.515
10.9691 -15.9366 191.61
11.1066 -15.9425 191.681
11.2432 -15.947 191.735
11.3788 -15.95 191.771
11.6527 -15.9594 191.884
11.7881 -15.9619 191.91299
11.9227 -15.9633 191.92999
12.0584 -15.966 191.963
12.1952 -15.9701 192.01199
12.3334 -15.976 192.08299
12.4706 -15.9805 192.13699
12.6067 -15.9834 192.172
12.7437 -15.9875 192.22099
12.8837 -15.9952 192.314
13.0204 -15.9987 192.356
13.1606 -16.0063 192.44701
13.298 -16.010401 192.49699
13.4353 -16.0144 192.54401
13.5728 -16.0184 192.593
13.7127 -16.025299 192.675
13.8547 -16.034401 192.785
14.0009 -16.0481 192.95
14.1456 -16.0599 193.091
14.2921 -16.0734 193.254
14.4388 -16.087 193.41701
14.5873 -16.102301 193.60201
14.732 -16.113199 193.733
14.8794 -16.126699 193.895
15.0263 -16.139601 194.05
15.1714 -16.1502 194.177
15.3175 -16.1618 194.31599
15.6117 -16.1863 194.61099
15.9106 -16.214701 194.953
16.208099 -16.2409 195.26801
16.347 -16.243799 195.30299
16.4911 -16.251801 195.399
16.6355 -16.26 195.498
16.7866 -16.2745 195.672
16.933399 -16.2847 195.79401
17.223499 -16.3013 195.994
17.365 -16.306 196.05099
17.504101 -16.3085 196.08
17.6434 -16.3111 196.112
17.790199 -16.320499 196.22501
17.9419 -16.334299 196.39
18.105 -16.358101 196.677
18.3571 -16.4613 197.918
18.561001 -16.520201 198.62601
18.7236 -16.5417 198.88499
18.8708 -16.5494 198.97701
19.017599 -16.556601 199.064
19.169201 -16.5679 199.19901
19.491301 -16.606001 199.658
19.669701 -16.639299 200.058
-0.65645099 -16.316999 197.839
-0.51855701 -16.311701 197.77499
-0.38086 -16.311001 197.767
-0.243077 -16.303801 197.679
1.91817 -15.9659 193.58299
2.0515001 -15.9548 193.448
2.1849999 -15.9462 193.34399
2.3182299 -15.9368 193.23
2.4510901 -15.9261 193.10001
2.5847099 -15.9211 193.03999
2.7182 -15.9159 192.976
2.85095 -15.907 192.868
2.9821601 -15.8907 192.67101
3.2446599 -15.8625 192.33
3.37552 -15.8484 192.158
3.50618 -15.8343 191.987
3.6375401 -15.8243 191.866
3.7697501 -15.8186 191.797
3.90239 -15.8151 191.754
4.0345602 -15.8099 191.69099
4.1670399 -15.8062 191.647
4.29951 -15.8027 191.605
4.43293 -15.8029 191.606
4.566 -15.8018 191.593
4.69841 -15.7985 191.55299
4.8320498 -15.7995 191.565
4.9654999 -15.7998 191.56799
5.0981398 -15.7975 191.541
5.23212 -15.7995 191.565
5.3659101 -15.8007 191.58
5.4991698 -15.8004 191.576
5.6321998 -15.7995 191.565
5.7658701 -15.8003 191.575
5.8989801 -15.7996 191.567
6.0328202 -15.8009 191.582
6.1654902 -15.7991 191.56
6.2981801 -15.7974 191.53999
6.4309301 -15.796 191.52299
6.5645399 -15.7967 191.53101
6.6982698 -15.7976 191.54201
6.8312402 -15.7967 191.532
6.96382 -15.795 191.511
7.0956101 -15.7916 191.47
7.2283201 -15.7904 191.45399
7.36097 -15.789 191.438
7.625 -15.7838 191.375
7.75805 -15.7835 191.371
7.8903098 -15.7815 191.347
8.0226297 -15.7798 191.326
8.1555204 -15.7792 191.319
8.2882996 -15.7784 191.31
8.4205999 -15.7768 191.28999
8.55408 -15.7774 191.297
8.6870899 -15.777 191.293
8.8196802 -15.776 191.28
8.95298 -15.7763 191.283
9.0846701 -15.7737 191.252
9.2168102 -15.772 191.23199
9.34937 -15.771 191.22
9.4804497 -15.7676 191.179
9.6124001 -15.7658 191.15601
9.7447205 -15.7646 191.142
9.8773403 -15.7638 191.133
10.011 -15.7648 191.145
10.1451 -15.7663 191.16299
10.2802 -15.7695 191.201
10.4158 -15.7733 191.248
10.5501 -15.7751 191.269
10.6859 -15.779 191.31599
10.8232 -15.7849 191.388
10.9614 -15.7921 191.476
11.0992 -15.7985 191.55299
11.2368 -15.8045 191.62601
11.3739 -15.8096 191.688
11.5111 -15.8148 191.75
11.6485 -15.8201 191.815
11.7838 -15.8225 191.84399
11.9186 -15.8241 191.864
12.055 -15.8279 191.909
12.1898 -15.8294 191.92799
12.3263 -15.8331 191.972
12.4641 -15.8384 192.037
12.6004 -15.8416 192.076
12.7364 -15.8446 192.112
12.8741 -15.8494 192.17
13.0096 -15.8515 192.196
13.2854 -15.8613 192.314
13.4234 -15.8662 192.37399
13.5581 -15.8671 192.38499
13.6944 -15.8698 192.418
13.8329 -15.8751 192.481
13.9761 -15.8856 192.60899
14.1229 -15.8998 192.782
14.2679 -15.9118 192.927
14.417 -15.9282 193.12601
14.5686 -15.947 193.354
14.7181 -15.9632 193.549
14.8655 -15.9768 193.715
15.0175 -15.9951 193.936
15.1616 -16.004601 194.052
15.3046 -16.012899 194.15199
15.4522 -16.025801 194.30901
15.7428 -16.046301 194.55701
15.8903 -16.058399 194.70399
16.041 -16.073601 194.888
16.1854 -16.0823 194.994
16.327299 -16.088301 195.067
16.6143 -16.1033 195.248
16.7658 -16.1182 195.42999
17.058599 -16.137899 195.668
17.204201 -16.146601 195.774
17.348801 -16.154301 195.868
17.490601 -16.159401 195.929
17.6308 -16.162901 195.97099
17.775499 -16.170401 196.062
17.926201 -16.1833 196.21899
18.082399 -16.2008 196.431
18.279699 -16.254601 197.084
18.5158 -16.341999 198.142
18.6964 -16.379299 198.59599
18.8507 -16.393299 198.765
18.9981 -16.400999 198.85899
19.148199 -16.4111 198.981
19.303699 -16.425501 199.155
19.4674 -16.446699 199.41299
19.630301 -16.4669 199.658
19.810301 -16.500999 200.071
20.004499 -16.546499 200.62199
-0.65630299 -16.175501 197.795
-0.51845598 -16.170799 197.737
-0.380766 -16.1693 197.718
-0.243001 -16.1611 197.618
1.91697 -15.8212 193.46201
2.0502999 -15.8108 193.33501
2.1835101 -15.8008 193.213
2.3168199 -15.7927 193.11301
2.4498501 -15.7836 193.002
2.58342 -15.7788 192.94299
2.7170401 -15.7747 192.894
2.84953 -15.7648 192.77299
2.9809501 -15.7501 192.593
3.11254 -15.7376 192.44
3.2428 -15.7196 192.22
3.37391 -15.707 192.06599
3.63622 -15.685 191.79601
3.7683699 -15.6793 191.72701
3.9008601 -15.6753 191.679
4.1665001 -15.6707 191.62199
4.2989302 -15.6672 191.57899
4.4325099 -15.6679 191.588
4.5655398 -15.6668 191.573
4.6979299 -15.6635 191.534
4.8319201 -15.6656 191.56
4.96524 -15.6655 191.558
5.0980902 -15.664 191.539
5.2315402 -15.6643 191.543
5.3653102 -15.6655 191.55901
5.4983602 -15.6647 191.548
5.63134 -15.6636 191.536
5.7648101 -15.664 191.53999
5.8972602 -15.6617 191.511
6.0307698 -15.6621 191.517
6.1633501 -15.6602 191.494
6.2958698 -15.6583 191.47
6.4286299 -15.657 191.45399
6.56212 -15.6575 191.46001
6.6953001 -15.6572 191.457
6.82828 -15.6565 191.44901
6.9604201 -15.654 191.41701
7.0921898 -15.6507 191.377
7.3579602 -15.6492 191.35899
7.4899402 -15.6467 191.328
7.62218 -15.6447 191.304
7.7550702 -15.6441 191.297
7.8872399 -15.6422 191.27299
8.0189505 -15.6393 191.23801
8.1515198 -15.6383 191.22501
8.2841301 -15.6373 191.213
8.4169502 -15.6367 191.20599
8.5516596 -15.6397 191.242
8.6856499 -15.6412 191.261
8.8183899 -15.6405 191.252
8.9515696 -15.6406 191.25301
9.0829096 -15.6375 191.215
9.2150602 -15.6358 191.19501
9.3473997 -15.6345 191.17999
9.4780703 -15.6306 191.131
9.6092701 -15.6275 191.09399
9.7416601 -15.6265 191.08099
9.8742304 -15.6258 191.073
10.0078 -15.6267 191.08299
10.1415 -15.6278 191.097
10.2757 -15.6294 191.117
10.4109 -15.6328 191.158
10.5455 -15.635 191.186
10.681 -15.6385 191.228
10.8178 -15.6438 191.29201
10.9558 -15.6507 191.377
11.0939 -15.6576 191.46201
11.2313 -15.6633 191.532
11.3686 -15.6689 191.599
11.5062 -15.6746 191.66901
11.6436 -15.6799 191.73399
11.7789 -15.6823 191.76401
11.914 -15.6845 191.78999
12.0501 -15.6878 191.83099
12.1847 -15.6892 191.84801
12.457 -15.6957 191.92799
12.5927 -15.6983 191.959
12.7275 -15.6998 191.97701
12.8639 -15.7031 192.01801
13.0005 -15.7067 192.062
13.1365 -15.7094 192.095
13.273 -15.7127 192.13499
13.4097 -15.7161 192.177
13.5449 -15.7177 192.19701
13.6821 -15.7216 192.245
13.8181 -15.7241 192.27499
14.0998 -15.7397 192.466
14.2413 -15.7481 192.569
14.3862 -15.76 192.713
14.5347 -15.7755 192.903
14.6882 -15.7961 193.15601
14.8356 -15.81 193.325
14.9845 -15.825 193.509
15.1328 -15.8393 193.68401
15.2798 -15.8519 193.838
15.426 -15.8635 193.98
15.5739 -15.8766 194.14
15.7165 -15.8841 194.23199
15.8624 -15.8949 194.36301
16.0123 -15.9093 194.53999
16.157499 -15.9189 194.657
16.4524 -15.9421 194.94099
16.597099 -15.9508 195.047
16.893101 -15.9739 195.32899
17.0375 -15.9818 195.42599
17.1812 -15.9889 195.51199
17.327101 -15.9979 195.623
17.4722 -16.0061 195.72301
17.616301 -16.0133 195.811
17.759899 -16.0198 195.89101
17.9114 -16.0333 196.056
18.063999 -16.047701 196.231
18.2227 -16.0672 196.47
18.455799 -16.1514 197.5
18.6614 -16.2106 198.22301
18.828699 -16.235901 198.533
18.9802 -16.2472 198.67101
19.1278 -16.2551 198.76801
19.2805 -16.2673 198.91701
19.448799 -16.2922 199.222
19.6082 -16.3095 199.43201
19.769699 -16.3281 199.661
19.953899 -16.3652 200.114
20.1544 -16.4151 200.724
-0.65614998 -16.034 197.748
-0.38058001 -16.023701 197.621
-0.105502 -16.034599 197.756
0.032109398 -16.006599 197.41
0.169241 -15.9787 197.06599
0.30589601 -15.9509 196.724
0.44207701 -15.9232 196.382
0.57778502 -15.8956 196.04201
1.25009 -15.7686 194.47501
1.38372 -15.7486 194.229
1.51694 -15.728 193.974
1.64961 -15.7055 193.69701
1.78268 -15.6898 193.504
1.91585 -15.6773 193.349
2.0492201 -15.6678 193.233
2.1823101 -15.6576 193.10699
2.31551 -15.6493 193.004
2.44892 -15.6432 192.929
2.5825701 -15.6393 192.88
2.71614 -15.6352 192.83
2.8484001 -15.6243 192.696
2.9801199 -15.6116 192.539
3.11149 -15.5983 192.375
3.2414401 -15.5792 192.13901
3.3726499 -15.5674 191.994
3.50371 -15.5559 191.85201
3.63517 -15.5469 191.741
3.7671399 -15.5407 191.664
3.8998401 -15.5378 191.629
4.0326099 -15.5354 191.599
4.1662798 -15.5364 191.612
4.2986898 -15.5329 191.56799
4.4320998 -15.5331 191.57001
4.56531 -15.5325 191.564
4.6974602 -15.5285 191.515
4.8318601 -15.532 191.55701
4.9651399 -15.5318 191.554
5.0980501 -15.5304 191.53799
5.2315502 -15.5309 191.54401
5.3647299 -15.5304 191.53799
5.4973998 -15.5285 191.51401
5.6303101 -15.5274 191.50101
5.7636399 -15.5275 191.50101
5.8956599 -15.524 191.459
6.0286798 -15.5234 191.451
6.16083 -15.5205 191.416
6.2934899 -15.519 191.397
6.42665 -15.5189 191.395
6.5598102 -15.5187 191.39301
6.6922598 -15.5168 191.37
6.8248701 -15.5154 191.353
6.9569602 -15.5129 191.32201
7.08955 -15.5116 191.306
7.2224102 -15.511 191.298
7.3551998 -15.5101 191.28799
7.48768 -15.5087 191.27
7.61973 -15.5065 191.242
7.7519002 -15.5046 191.21899
7.8843498 -15.5032 191.203
8.0156202 -15.4997 191.159
8.2800703 -15.4965 191.12
8.4132299 -15.4967 191.12199
8.6836796 -15.5045 191.218
8.8174105 -15.5056 191.231
8.9499598 -15.5046 191.21899
9.0813398 -15.5016 191.18201
9.2130899 -15.4993 191.155
9.3451595 -15.4977 191.134
9.4758301 -15.4938 191.086
9.6068096 -15.4905 191.045
9.7393503 -15.4897 191.036
9.8715 -15.4884 191.02
10.0049 -15.4891 191.028
10.1386 -15.4901 191.041
10.272 -15.4908 191.049
10.4071 -15.494 191.088
10.5423 -15.4971 191.127
10.6773 -15.4999 191.162
10.8142 -15.5055 191.23
10.952 -15.512 191.311
11.0898 -15.5185 191.39101
11.2268 -15.5237 191.455
11.364 -15.529 191.52
11.5015 -15.5347 191.591
11.6389 -15.54 191.65601
11.7749 -15.5434 191.698
11.9097 -15.5452 191.72
12.0451 -15.5477 191.75101
12.1802 -15.5498 191.77699
12.3154 -15.552 191.804
12.4507 -15.5541 191.83
13.1261 -15.5632 191.942
13.2626 -15.5666 191.98399
13.3984 -15.5691 192.015
13.5345 -15.5719 192.05
13.6717 -15.5759 192.099
13.8092 -15.5802 192.15199
13.9468 -15.5845 192.205
14.0877 -15.5924 192.302
14.2269 -15.5981 192.373
14.3631 -15.6007 192.40401
14.507 -15.6113 192.536
14.6564 -15.6278 192.73801
14.8036 -15.6415 192.907
14.9576 -15.6622 193.16299
15.103 -15.6735 193.302
15.252 -15.6883 193.485
15.546 -15.7132 193.79201
15.6904 -15.7227 193.909
15.9812 -15.7432 194.16299
16.128099 -15.7546 194.30299
16.279301 -15.7701 194.494
16.4272 -15.7821 194.642
16.5746 -15.7934 194.782
16.723 -15.8055 194.931
16.8738 -15.8197 195.106
17.1635 -15.8363 195.311
17.3071 -15.8434 195.39799
17.4524 -15.8518 195.502
17.6008 -15.8628 195.638
17.7437 -15.8689 195.71201
17.896 -15.8831 195.888
18.046301 -15.8954 196.039
18.198299 -15.909 196.207
18.385 -15.9525 196.743
18.620199 -16.0371 197.787
18.802401 -16.0751 198.256
18.9603 -16.091999 198.463
19.1094 -16.1012 198.577
19.4233 -16.132299 198.96001
19.586901 -16.152901 199.215
19.7477 -16.171101 199.44
19.912001 -16.191799 199.69501
20.104601 -16.235001 200.228
-0.93176597 -15.9012 197.81
-0.79374599 -15.8949 197.73199
-0.655918 -15.8906 197.679
-0.51814502 -15.8858 197.618
-0.38038799 -15.8781 197.522
1.78158 -15.5455 193.384
1.91467 -15.533 193.23
2.04777 -15.5222 193.09599
2.18115 -15.5149 193.004
2.31429 -15.5067 192.90199
2.4479799 -15.5029 192.855
2.58179 -15.5002 192.82201
2.7151201 -15.4951 192.758
2.8473599 -15.4845 192.62601
3.1107399 -15.4606 192.328
3.2406001 -15.4413 192.089
3.3713601 -15.4278 191.92101
3.5027101 -15.4179 191.797
3.6343701 -15.41 191.69901
3.7664001 -15.4041 191.62601
3.8993001 -15.4022 191.60201
4.0321999 -15.4003 191.57899
4.1658802 -15.4015 191.593
4.2983799 -15.3983 191.554
4.4317999 -15.3986 191.55701
4.56531 -15.3991 191.564
4.6973901 -15.3949 191.51199
4.83184 -15.3985 191.556
4.9650302 -15.398 191.55
5.0977602 -15.3961 191.52699
5.2314901 -15.3973 191.54201
5.3639202 -15.3947 191.509
5.4963999 -15.3923 191.48
5.6290698 -15.3906 191.45799
5.7618899 -15.3894 191.44299
5.8937702 -15.3857 191.39799
6.0267701 -15.3851 191.39
6.1588101 -15.3821 191.353
6.2911201 -15.3799 191.325
6.4244099 -15.3802 191.32899
6.5576601 -15.3803 191.33
6.8220701 -15.3758 191.27499
6.954 -15.3731 191.241
7.0873199 -15.3735 191.246
7.22018 -15.373 191.239
7.3526402 -15.3716 191.22099
7.4854698 -15.371 191.214
7.61724 -15.3683 191.17999
7.7490501 -15.3657 191.149
7.8811498 -15.3638 191.125
8.0125504 -15.3607 191.086
8.1446304 -15.3589 191.063
8.2771502 -15.358 191.052
8.4102097 -15.3581 191.05299
8.5451202 -15.3615 191.09599
8.6807699 -15.3661 191.15401
8.8154202 -15.3689 191.188
8.9484997 -15.3689 191.188
9.0800304 -15.3662 191.155
9.2116499 -15.3638 191.125
9.3432102 -15.3613 191.09399
9.4742298 -15.3581 191.05299
9.6053696 -15.3551 191.01601
9.7380695 -15.3547 191.011
10.0021 -15.3518 190.97501
10.1356 -15.3525 190.98399
10.2686 -15.3527 190.98599
10.5385 -15.3584 191.058
10.673 -15.3606 191.08501
10.8107 -15.3673 191.168
10.9487 -15.3741 191.25301
11.086 -15.3799 191.32401
11.2234 -15.3857 191.397
11.3609 -15.3914 191.468
11.4981 -15.3967 191.534
11.6352 -15.4017 191.59599
11.7719 -15.406 191.64999
11.9072 -15.4085 191.67999
12.0422 -15.4104 191.70399
12.1769 -15.4121 191.72501
12.3115 -15.4134 191.742
12.4458 -15.4145 191.755
12.5808 -15.4164 191.77901
12.7153 -15.4176 191.79401
12.8495 -15.4184 191.804
12.9842 -15.4198 191.821
13.118 -15.42 191.82401
13.2539 -15.4228 191.858
13.3907 -15.4266 191.90601
13.5281 -15.4309 191.959
13.664 -15.4335 191.991
13.8017 -15.4379 192.04601
13.9395 -15.4425 192.104
14.0782 -15.4479 192.17101
14.2156 -15.4519 192.22
14.3517 -15.4543 192.25
14.6351 -15.471 192.45799
14.7817 -15.4842 192.623
14.9288 -15.4977 192.791
15.0751 -15.5101 192.94501
15.2253 -15.5263 193.146
15.3725 -15.5392 193.30701
15.5237 -15.5559 193.51401
15.6692 -15.5666 193.64799
15.816 -15.5784 193.79401
15.9582 -15.5855 193.883
16.103201 -15.5952 194.00301
16.256001 -15.6123 194.216
16.4023 -15.6228 194.347
16.696199 -15.6447 194.619
16.995199 -15.6705 194.94
17.1427 -15.6813 195.07401
17.2875 -15.6895 195.17599
17.432199 -15.6974 195.27499
17.5819 -15.7097 195.42799
17.7283 -15.7189 195.54201
17.878401 -15.7312 195.696
18.0284 -15.7432 195.845
18.185101 -15.7608 196.064
18.341101 -15.7777 196.27299
18.5648 -15.852 197.198
18.7747 -15.9135 197.963
18.9359 -15.9332 198.20799
19.091999 -15.9484 198.397
19.2435 -15.9594 198.535
19.4056 -15.9791 198.77901
19.5674 -15.9983 199.017
19.7281 -16.016199 199.241
20.0574 -16.0578 199.758
20.249399 -16.099899 200.282
-0.931467 -15.7584 197.74699
-0.793549 -15.7533 197.683
-0.655671 -15.747 197.604
-0.517986 -15.7433 197.55701
-0.380238 -15.7343 197.444
1.91366 -15.3903 193.127
2.04668 -15.3796 192.994
2.1798799 -15.3715 192.892
2.31303 -15.364 192.797
2.5808001 -15.36 192.748
2.7140601 -15.3548 192.68201
2.8464401 -15.3453 192.564
2.9777901 -15.3314 192.388
3.10969 -15.3214 192.263
3.2397799 -15.3037 192.041
3.50196 -15.281 191.756
3.63377 -15.2739 191.66701
3.7657299 -15.2679 191.592
3.89902 -15.2676 191.588
4.0321898 -15.2669 191.57899
4.1656599 -15.2672 191.58299
4.2985301 -15.2655 191.561
4.4321699 -15.2664 191.573
4.5658498 -15.2675 191.586
4.6979799 -15.2634 191.536
4.8320198 -15.2657 191.564
4.96487 -15.2641 191.54401
5.0973001 -15.2613 191.50999
5.2307 -15.2616 191.51199
5.3628998 -15.2584 191.47301
5.4949398 -15.2549 191.429
5.6270099 -15.2517 191.388
5.75948 -15.2497 191.36301
5.8915401 -15.2467 191.325
6.02455 -15.2462 191.319
6.1567798 -15.2438 191.28999
6.28901 -15.2416 191.261
6.5548902 -15.2406 191.24899
6.6873498 -15.2391 191.23
6.8201199 -15.2383 191.22
6.9521699 -15.2359 191.19099
7.0851402 -15.2356 191.187
7.2179799 -15.2351 191.17999
7.3502798 -15.2335 191.16
7.48277 -15.2323 191.145
7.6142602 -15.2291 191.105
7.8781099 -15.2248 191.05099
8.0092802 -15.2213 191.008
8.1416397 -15.2202 190.993
8.2745104 -15.22 190.991
8.40763 -15.2203 190.995
8.5421801 -15.2232 191.03
8.6774998 -15.2273 191.082
8.8124104 -15.2305 191.123
8.9461403 -15.2317 191.13699
9.0780201 -15.2297 191.112
9.2097902 -15.2276 191.086
9.3417702 -15.2259 191.065
9.4732199 -15.2234 191.033
9.6044197 -15.2205 190.998
9.7365599 -15.2193 190.981
9.8681002 -15.2171 190.95399
10.0001 -15.2156 190.936
10.1332 -15.2159 190.939
10.2663 -15.2161 190.942
10.4007 -15.2184 190.97099
10.5352 -15.2205 190.998
10.67 -15.2233 191.032
10.8071 -15.229 191.104
10.945 -15.2358 191.189
11.0821 -15.2413 191.257
11.2202 -15.248 191.342
11.3582 -15.2545 191.424
11.4953 -15.2596 191.48801
11.6322 -15.2643 191.54601
11.7691 -15.2689 191.605
11.9047 -15.2717 191.63901
12.0394 -15.2734 191.661
12.1747 -15.2758 191.69
12.3091 -15.2769 191.705
12.4431 -15.2776 191.713
12.5776 -15.2788 191.729
12.7105 -15.2782 191.72099
12.8445 -15.2788 191.728
12.9785 -15.2795 191.737
13.1122 -15.2797 191.74001
13.2477 -15.282 191.769
13.3844 -15.2857 191.815
13.5222 -15.2905 191.87601
13.6589 -15.294 191.92
13.9338 -15.3024 192.02499
14.0713 -15.3066 192.078
14.2097 -15.3116 192.14
14.3475 -15.316 192.19501
14.4851 -15.32 192.246
14.6265 -15.3279 192.345
14.7701 -15.338 192.47099
14.9136 -15.3478 192.595
15.0561 -15.3564 192.702
15.199 -15.3652 192.813
15.3481 -15.3801 193
15.5001 -15.3977 193.22
15.6517 -15.4144 193.431
15.7976 -15.4255 193.569
15.9399 -15.4327 193.66
16.2335 -15.4555 193.946
16.5289 -15.4793 194.244
16.6768 -15.4911 194.392
16.8255 -15.5035 194.548
16.9736 -15.515 194.69299
17.2684 -15.5364 194.96001
17.415199 -15.5462 195.084
17.565599 -15.5592 195.24699
17.714199 -15.5703 195.38699
17.8647 -15.5829 195.545
18.0142 -15.5945 195.69099
18.166901 -15.6087 195.868
18.3197 -15.6227 196.04401
18.5144 -15.672 196.66299
18.749399 -15.7544 197.69701
19.073 -15.7944 198.19901
19.389799 -15.8278 198.618
19.5483 -15.8442 198.82401
19.706499 -15.8601 199.02299
19.867701 -15.8782 199.25
20.030701 -15.8975 199.492
20.205099 -15.9255 199.84399
20.396299 -15.9663 200.356
-1.0690399 -15.6193 197.729
-0.931265 -15.6172 197.70399
-0.79334402 -15.6116 197.632
-0.65548599 -15.605 197.548
-0.51770002 -15.5971 197.448
-0.38005701 -15.5893 197.35001
-0.242502 -15.5784 197.21201
-0.105108 -15.5629 197.01601
0.032003399 -15.5426 196.759
0.16877399 -15.5239 196.522
0.305179 -15.5034 196.26199
0.441221 -15.4828 196.002
0.57681698 -15.46 195.713
1.11401 -15.3527 194.354
1.2484601 -15.3422 194.22099
1.38168 -15.3202 193.94299
1.64737 -15.2799 193.433
1.78016 -15.2639 193.23
1.9128 -15.249 193.041
2.0459199 -15.2395 192.922
2.1788499 -15.2299 192.8
2.31178 -15.2214 192.69299
2.4457901 -15.2206 192.68201
2.5797999 -15.2198 192.673
2.71315 -15.2155 192.618
2.8457601 -15.2076 192.51801
2.9767001 -15.1919 192.319
3.1085 -15.1817 192.19
3.2388301 -15.1655 191.985
3.3698499 -15.1536 191.83501
3.50142 -15.1451 191.726
3.6332099 -15.1381 191.638
3.8985801 -15.1325 191.567
4.03231 -15.1339 191.584
4.1658101 -15.1343 191.59
4.2993498 -15.1349 191.597
4.4331498 -15.1363 191.61501
4.5665202 -15.1362 191.61501
4.6988802 -15.1329 191.57201
4.8319802 -15.1321 191.562
4.9644098 -15.1293 191.526
5.09659 -15.1259 191.483
5.2294598 -15.1246 191.467
5.3617201 -15.1217 191.431
5.49334 -15.1172 191.373
5.6249499 -15.1129 191.31799
5.7572098 -15.1104 191.287
5.8892698 -15.1076 191.252
6.0218201 -15.1061 191.233
6.1542201 -15.1043 191.21001
6.2866201 -15.1026 191.189
6.4192801 -15.1016 191.17599
6.5522299 -15.1013 191.172
6.6850901 -15.1008 191.16499
6.8180599 -15.1005 191.162
6.9505501 -15.0992 191.146
7.0830898 -15.0981 191.132
7.2153401 -15.0964 191.11
7.3475699 -15.0948 191.089
7.4795499 -15.0926 191.063
7.6114101 -15.0904 191.034
7.7431998 -15.088 191.004
7.8751898 -15.0862 190.98
8.0059996 -15.0821 190.929
8.1386995 -15.0817 190.924
8.2717199 -15.0819 190.927
8.4050703 -15.0827 190.937
8.5395498 -15.0855 190.97099
8.6739902 -15.0881 191.005
8.8089304 -15.0914 191.047
8.9430103 -15.0933 191.07001
9.0754995 -15.0924 191.05901
9.2080002 -15.0916 191.049
9.3405895 -15.0909 191.03999
9.4722605 -15.0888 191.01401
9.6037502 -15.0865 190.98399
9.86728 -15.0828 190.938
9.99891 -15.0809 190.914
10.1313 -15.0801 190.903
10.2641 -15.08 190.903
10.3987 -15.0824 190.93201
10.5329 -15.0842 190.95599
10.6677 -15.087 190.991
10.8041 -15.0918 191.05099
10.9413 -15.0975 191.12399
11.0786 -15.1034 191.198
11.2167 -15.11 191.283
11.355 -15.1169 191.37
11.4926 -15.1226 191.442
11.6296 -15.1275 191.504
11.7663 -15.1318 191.55901
11.9023 -15.1351 191.601
12.0371 -15.137 191.62399
12.1734 -15.1406 191.67
12.3078 -15.1417 191.68401
12.4411 -15.1416 191.68201
12.5744 -15.1415 191.67999
12.7066 -15.14 191.661
12.8397 -15.1395 191.65601
12.9734 -15.1399 191.661
13.1076 -15.1408 191.672
13.2415 -15.1414 191.679
13.3782 -15.145 191.726
13.517 -15.151 191.80099
13.6552 -15.1562 191.867
13.7916 -15.1593 191.907
13.9303 -15.1649 191.97701
14.0673 -15.1685 192.02299
14.206 -15.1738 192.09
14.345 -15.1794 192.161
14.484 -15.1849 192.23
14.6235 -15.1908 192.30499
14.7657 -15.1994 192.414
14.9082 -15.2081 192.524
15.0491 -15.2151 192.612
15.1865 -15.2184 192.65401
15.3291 -15.2268 192.761
15.4819 -15.2451 192.992
15.6316 -15.2601 193.183
15.7812 -15.2748 193.368
16.066401 -15.2899 193.56
16.212 -15.3001 193.689
16.361601 -15.314 193.86501
16.5089 -15.3255 194.00999
16.656601 -15.3371 194.157
16.804001 -15.3482 194.298
17.100901 -15.372 194.599
17.250601 -15.3846 194.759
17.4002 -15.3971 194.91701
17.552799 -15.4119 195.105
17.700899 -15.4226 195.24001
17.850599 -15.4346 195.39101
17.9998 -15.4459 195.534
18.152399 -15.4599 195.711
18.305401 -15.4741 195.89101
18.476101 -15.5028 196.255
18.709801 -15.5837 197.27901
18.898701 -15.6264 197.819
19.2108 -15.6563 198.198
19.3689 -15.6725 198.403
19.530199 -15.6911 198.63901
19.687901 -15.7066 198.83501
19.8466 -15.7227 199.039
20.009001 -15.7415 199.276
20.1752 -15.7629 199.548
20.344801 -15.7867 199.849
20.535801 -15.8267 200.355
-1.62387 -15.522 198.246
-1.48455 -15.5083 198.071
-1.3452899 -15.4926 197.87
-1.20706 -15.4864 197.791
-1.06859 -15.4751 197.647
-0.930942 -15.4742 197.63499
-0.79318202 -15.4707 197.591
-0.655325 -15.4636 197.5
-0.51742703 -15.4514 197.34399
-0.379787 -15.4409 197.21001
-0.24233 -15.4301 197.07201
-0.105032 -15.4147 196.875
0.031994 -15.4011 196.701
0.16871101 -15.3812 196.448
0.30504799 -15.3601 196.17799
0.44101101 -15.339 195.908
0.97981799 -15.2345 194.57401
1.24801 -15.2014 194.15199
1.38131 -15.181 193.89
1.51414 -15.1595 193.617
1.64674 -15.1394 193.35899
1.77961 -15.1246 193.17101
1.91225 -15.1101 192.98599
2.0452199 -15.0999 192.855
2.3107901 -15.0807 192.61
2.4446599 -15.0794 192.593
2.5787899 -15.0797 192.597
2.7121999 -15.076 192.55
2.97593 -15.054 192.26801
3.1075201 -15.0431 192.129
3.23806 -15.0281 191.938
3.36936 -15.0178 191.80701
3.5011001 -15.0102 191.709
3.6332099 -15.0046 191.638
3.7658899 -15.0017 191.601
3.8982301 -14.9977 191.549
4.0324798 -15.001 191.592
4.16607 -15.0018 191.60201
4.3000202 -15.0038 191.627
4.4341798 -15.0064 191.66
4.5665998 -15.0031 191.618
4.69909 -15.0002 191.58099
4.8311701 -14.9961 191.53
4.9635601 -14.9933 191.493
5.09549 -14.9892 191.442
5.2281098 -14.9874 191.418
5.36022 -14.9842 191.377
5.4920101 -14.9803 191.327
5.6234498 -14.9756 191.267
5.75565 -14.9731 191.23599
5.8875799 -14.9701 191.19701
6.0198302 -14.9679 191.17
6.1518898 -14.9655 191.138
6.2845702 -14.9645 191.12601
6.4171901 -14.9635 191.11301
6.55022 -14.9635 191.11301
6.68326 -14.9635 191.11301
6.8155699 -14.9619 191.092
6.94807 -14.9608 191.078
7.0806098 -14.9598 191.065
7.21246 -14.9573 191.034
7.47649 -14.9534 190.98399
7.6085601 -14.9517 190.96201
7.74017 -14.9491 190.929
7.8724198 -14.9479 190.91299
8.0036001 -14.9447 190.87199
8.1364803 -14.9447 190.87199
8.2695198 -14.945 190.87601
8.4028397 -14.9457 190.886
8.5370197 -14.948 190.91499
8.67136 -14.9505 190.946
8.8057804 -14.953 190.979
8.9399796 -14.9551 191.006
9.0730305 -14.9552 191.007
9.2063103 -14.9557 191.01401
9.33953 -14.9561 191.019
9.47194 -14.9552 191.007
9.60429 -14.9543 190.995
9.86656 -14.9487 190.924
9.9980898 -14.9467 190.89799
10.13 -14.9452 190.879
10.2622 -14.9443 190.867
10.3963 -14.946 190.88901
10.5309 -14.9484 190.91901
10.6658 -14.9512 190.95599
10.8026 -14.9566 191.024
10.9394 -14.9618 191.092
11.0766 -14.9674 191.16299
11.2141 -14.9734 191.239
11.3522 -14.98 191.323
11.4902 -14.9862 191.403
11.6277 -14.9916 191.472
11.7638 -14.9953 191.519
11.901 -15.0001 191.58
12.0372 -15.0037 191.62601
12.1729 -15.0065 191.662
12.3066 -15.0069 191.66701
12.4391 -15.0057 191.65199
12.5716 -15.0045 191.63699
12.7039 -15.0032 191.62
12.8374 -15.0034 191.62199
12.97 -15.0025 191.61099
13.104 -15.0032 191.619
13.2383 -15.0042 191.632
13.3748 -15.0076 191.67599
13.514 -15.0141 191.759
13.6532 -15.0204 191.84
13.7902 -15.0241 191.886
14.0672 -15.0346 192.021
14.2051 -15.0391 192.078
14.3452 -15.0458 192.164
14.4844 -15.0514 192.235
14.6222 -15.0555 192.28799
14.763 -15.0626 192.37801
14.9045 -15.0702 192.476
15.0445 -15.0763 192.554
15.1823 -15.08 192.60001
15.3228 -15.0863 192.681
15.469 -15.0981 192.832
15.6145 -15.109 192.97099
15.766 -15.1254 193.181
15.9062 -15.1309 193.25101
16.199499 -15.1535 193.53999
16.3466 -15.165 193.687
16.493601 -15.1762 193.83
16.639601 -15.1863 193.959
16.7838 -15.1946 194.065
16.9342 -15.2084 194.241
17.083099 -15.2206 194.397
17.2299 -15.2308 194.526
17.3839 -15.2471 194.73399
17.535999 -15.2614 194.91701
17.687901 -15.2754 195.097
17.8393 -15.2887 195.267
17.99 -15.3013 195.427
18.1422 -15.315 195.60201
18.296101 -15.3298 195.791
18.462299 -15.3546 196.108
18.6763 -15.4187 196.92599
19.0404 -15.4918 197.86
19.3519 -15.5207 198.229
19.510401 -15.5371 198.438
19.670799 -15.5546 198.66299
19.829901 -15.571 198.871
19.985901 -15.5846 199.04601
20.1535 -15.6071 199.33299
20.3169 -15.6261 199.575
20.4911 -15.653 199.91901
20.6793 -15.6902 200.394
-1.76169 -15.3823 198.22501
-1.62261 -15.372 198.093
-1.48361 -15.3607 197.946
-1.34481 -15.3493 197.8
-1.20654 -15.3419 197.705
-1.06836 -15.3341 197.605
-0.93063903 -15.3315 197.571
-0.79299301 -15.3295 197.54401
-0.655029 -15.3191 197.41
-0.379549 -15.2939 197.086
0.032044802 -15.2883 197.013
0.16890199 -15.2617 196.67101
0.30528301 -15.2352 196.32899
0.441192 -15.2088 195.989
0.57663101 -15.1825 195.64999
0.84610599 -15.1301 194.97501
0.98014802 -15.104 194.63901
1.11373 -15.0781 194.30499
1.24734 -15.0582 194.048
1.38083 -15.0408 193.82401
1.5137 -15.0203 193.56
1.64627 -15.0004 193.304
1.77905 -14.9854 193.11
1.9117399 -14.9717 192.93401
2.0445099 -14.9604 192.789
2.1772399 -14.9503 192.657
2.31007 -14.942 192.55099
2.44399 -14.9412 192.541
2.57811 -14.9417 192.547
2.71118 -14.9363 192.478
2.8441899 -14.9311 192.411
2.9753599 -14.9172 192.23199
3.10639 -14.9038 192.05901
3.2376699 -14.8927 191.916
3.3691001 -14.8831 191.79201
3.5007801 -14.8753 191.69099
3.6333599 -14.8717 191.646
3.76612 -14.8691 191.612
3.89855 -14.8655 191.565
4.0327401 -14.8686 191.605
4.1664901 -14.8699 191.621
4.4349999 -14.8756 191.696
4.5662198 -14.8684 191.60201
4.6989498 -14.8663 191.575
4.8302798 -14.86 191.495
4.9622698 -14.8561 191.444
5.0945802 -14.8532 191.407
5.22683 -14.8504 191.371
5.3586602 -14.8466 191.321
5.4906101 -14.8432 191.278
5.6220002 -14.8385 191.218
5.7541599 -14.8361 191.186
5.8861098 -14.8332 191.149
6.0184598 -14.8314 191.12601
6.1503501 -14.8286 191.09
6.2828102 -14.8273 191.073
6.4155998 -14.8267 191.06599
6.5493898 -14.8285 191.089
6.68189 -14.8274 191.07401
6.8141098 -14.8256 191.05099
6.9459701 -14.8232 191.02
7.0781798 -14.8216 190.99899
7.2088799 -14.8169 190.939
7.3404799 -14.8142 190.905
7.4730301 -14.8136 190.896
7.6052799 -14.8123 190.88
7.7374902 -14.811 190.86301
7.8695898 -14.8096 190.845
8.0009403 -14.8068 190.80901
8.1342297 -14.8076 190.819
8.2673702 -14.8082 190.826
8.4006395 -14.8089 190.836
8.5349398 -14.8114 190.868
8.66992 -14.815 190.91499
8.8035202 -14.8162 190.92999
8.9377604 -14.8184 190.95799
9.0715504 -14.8198 190.976
9.2055101 -14.8214 190.99699
9.3392801 -14.8227 191.01401
9.4721804 -14.8226 191.01199
9.6034698 -14.82 190.979
9.7346096 -14.8172 190.94299
9.8655796 -14.8143 190.905
9.9968996 -14.812 190.875
10.1288 -14.8105 190.856
10.2609 -14.8094 190.843
10.3941 -14.8099 190.84801
10.5287 -14.8124 190.881
10.6639 -14.8156 190.922
10.8011 -14.8215 190.998
10.9384 -14.8273 191.073
11.0746 -14.8316 191.12801
11.2121 -14.8374 191.203
11.3506 -14.8445 191.295
11.4885 -14.8506 191.37399
11.6259 -14.856 191.44299
11.7625 -14.8602 191.49699
11.8997 -14.865 191.55901
12.0371 -14.87 191.623
12.1731 -14.8732 191.66499
12.3062 -14.8728 191.66
12.438 -14.8709 191.63499
12.5694 -14.8685 191.604
12.7008 -14.8662 191.575
12.8345 -14.8666 191.57899
12.9678 -14.8665 191.57899
13.1019 -14.8673 191.589
13.2363 -14.8685 191.604
13.3723 -14.8714 191.642
13.5125 -14.8788 191.737
13.6516 -14.885 191.817
13.7905 -14.8908 191.89101
13.932 -14.8992 192
14.069 -14.9028 192.04601
14.2081 -14.9085 192.119
14.3476 -14.9144 192.196
14.4865 -14.9197 192.26401
14.624 -14.9234 192.312
14.7624 -14.928 192.371
14.9035 -14.9352 192.464
15.0413 -14.9389 192.51199
15.1793 -14.9429 192.562
15.3162 -14.9457 192.59801
15.4602 -14.9553 192.722
15.6069 -14.9673 192.877
15.7552 -14.9807 193.049
15.8948 -14.9856 193.112
16.0411 -14.9967 193.256
16.3333 -15.018 193.53
16.4797 -15.0285 193.666
16.628799 -15.0414 193.83299
16.7724 -15.0493 193.93401
16.9196 -15.0601 194.073
17.066999 -15.0709 194.213
17.217899 -15.0847 194.39
17.370701 -15.0999 194.586
17.520599 -15.1124 194.74699
17.6756 -15.129 194.961
17.8284 -15.1435 195.14799
17.980301 -15.157 195.32201
18.1322 -15.1703 195.494
18.286501 -15.1854 195.688
18.445299 -15.2041 195.929
18.654301 -15.2635 196.694
18.861099 -15.3202 197.425
19.0228 -15.3398 197.677
19.177299 -15.3533 197.851
19.333799 -15.3682 198.04401
19.4939 -15.3858 198.27
19.6535 -15.4027 198.48801
19.969601 -15.4334 198.883
20.132999 -15.4526 199.131
20.2969 -15.4719 199.379
20.459499 -15.4898 199.61099
20.636499 -15.5184 199.979
-1.62164 -15.2249 197.974
-1.4826601 -15.2131 197.82001
-1.34428 -15.2055 197.72099
-1.20595 -15.1968 197.60899
-1.06814 -15.1933 197.563
-0.930462 -15.191 197.533
-0.79267001 -15.1857 197.464
-0.65469801 -15.1739 197.311
-0.51687902 -15.1604 197.13499
-0.37929299 -15.1464 196.953
-0.241993 -15.1345 196.799
1.77859 -14.847 193.06
1.91123 -14.8334 192.883
2.0439 -14.8217 192.731
2.17665 -14.8121 192.606
2.3095601 -14.8045 192.508
2.44331 -14.8029 192.487
2.57739 -14.8034 192.493
2.7105401 -14.7987 192.43201
2.84342 -14.7931 192.35899
2.97492 -14.7811 192.203
3.1059501 -14.7679 192.032
3.2374101 -14.7578 191.89999
3.3689699 -14.7489 191.785
3.5009699 -14.7425 191.702
3.6336999 -14.7396 191.664
3.7665901 -14.7375 191.636
3.8993499 -14.7351 191.604
4.03336 -14.7374 191.634
4.1673198 -14.7393 191.66
4.3016801 -14.7425 191.701
4.4351101 -14.7424 191.7
4.5658998 -14.7339 191.589
4.6982002 -14.7305 191.545
4.8292398 -14.7235 191.453
4.96136 -14.72 191.409
5.0936098 -14.7171 191.371
5.2258101 -14.7142 191.33299
5.35711 -14.7091 191.26601
5.4889798 -14.7056 191.22099
5.6202402 -14.7007 191.158
5.7523298 -14.6982 191.125
5.8844199 -14.6958 191.09399
6.01689 -14.6945 191.076
6.1488299 -14.6919 191.043
6.2813101 -14.6907 191.02699
6.4142499 -14.6906 191.026
6.54843 -14.6933 191.061
6.6810899 -14.6925 191.05099
6.8131599 -14.6905 191.02499
6.9442902 -14.6866 190.974
7.0754499 -14.6829 190.92599
7.2056499 -14.6774 190.854
7.33705 -14.6744 190.81599
7.4703698 -14.6754 190.828
7.60321 -14.6754 190.828
7.73528 -14.6739 190.80901
7.8675499 -14.6728 190.795
7.9991999 -14.6707 190.767
8.1326704 -14.6719 190.783
8.2658501 -14.6725 190.791
8.3989201 -14.673 190.797
8.5330496 -14.6752 190.826
8.6685495 -14.6797 190.88499
8.8019896 -14.6806 190.897
8.9360905 -14.6826 190.923
9.0703697 -14.6848 190.951
9.2047701 -14.6872 190.98199
9.3389101 -14.6891 191.006
9.4721804 -14.6895 191.01199
9.6029301 -14.6861 190.968
9.7341204 -14.6835 190.93401
9.8645096 -14.6797 190.88499
9.9956903 -14.6772 190.85201
10.1275 -14.6757 190.83299
10.26 -14.6751 190.825
10.393 -14.6755 190.83
10.5274 -14.6776 190.85699
10.6626 -14.6808 190.89799
10.7997 -14.6866 190.974
10.9365 -14.6918 191.041
11.0731 -14.6965 191.10201
11.2099 -14.7015 191.168
11.3486 -14.7088 191.26199
11.4875 -14.7161 191.358
11.6247 -14.7211 191.423
11.7611 -14.7251 191.474
11.8989 -14.7306 191.54601
12.0368 -14.7363 191.62
12.1732 -14.7398 191.666
12.3051 -14.738 191.64301
12.4356 -14.7345 191.597
12.5668 -14.732 191.565
12.6989 -14.7305 191.545
12.8332 -14.7317 191.56
13.1008 -14.7326 191.573
13.2356 -14.7342 191.593
13.3715 -14.7371 191.63
13.5123 -14.7451 191.735
13.6522 -14.7521 191.825
13.7937 -14.7605 191.935
13.9353 -14.7691 192.04601
14.0748 -14.7751 192.125
14.2136 -14.7804 192.19299
14.3531 -14.7863 192.27
14.4911 -14.7905 192.325
14.6279 -14.7934 192.36301
14.765 -14.7966 192.40401
14.9041 -14.8017 192.47099
15.041 -14.8047 192.509
15.1781 -14.8076 192.547
15.3171 -14.8124 192.61
15.4571 -14.8181 192.68401
15.602 -14.8283 192.817
15.7453 -14.8369 192.92799
15.8856 -14.8425 193.00101
16.030399 -14.8521 193.12601
16.1775 -14.8637 193.278
16.4718 -14.8865 193.57401
16.617399 -14.8963 193.701
16.762199 -14.9051 193.81599
16.9081 -14.9148 193.942
17.0546 -14.9249 194.07201
17.2041 -14.9373 194.23399
17.3571 -14.9526 194.433
17.5084 -14.9663 194.61099
17.6668 -14.9857 194.86301
17.816601 -14.9976 195.019
17.971701 -15.0138 195.228
18.1222 -15.0259 195.386
18.2794 -15.0433 195.61301
18.441999 -15.0649 195.894
18.635799 -15.1114 196.498
18.8419 -15.1673 197.224
19.0086 -15.1908 197.53
19.1635 -15.2046 197.709
19.318501 -15.2183 197.888
19.479799 -15.2367 198.127
19.6374 -15.252 198.326
19.7964 -15.2681 198.535
19.954901 -15.2836 198.737
20.1122 -15.298 198.925
20.2761 -15.3172 199.174
20.6092 -15.3588 199.715
20.7952 -15.3936 200.16701
21.0042 -15.4448 200.83299
-1.62087 -15.0799 197.88
-1.48207 -15.0692 197.741
-1.34366 -15.0608 197.63
-1.20551 -15.0538 197.537
-1.06793 -15.0527 197.524
-0.93029898 -15.0508 197.49899
-0.79224199 -15.04 197.35699
-0.516541 -15.0133 197.006
-0.37902001 -14.9984 196.811
-0.241826 -14.9871 196.662
-0.10487 -14.9801 196.571
1.77828 -14.71 193.02699
1.91079 -14.6957 192.839
2.0434 -14.6839 192.68401
2.1761799 -14.6748 192.564
2.3088901 -14.6662 192.452
2.44241 -14.6634 192.416
2.5763199 -14.6633 192.41299
2.70994 -14.6615 192.39
2.8424301 -14.654 192.29201
2.9742601 -14.644 192.161
3.1059699 -14.6343 192.033
3.2370501 -14.6225 191.879
3.36883 -14.6147 191.776
3.5013299 -14.6105 191.72099
3.6341901 -14.6081 191.689
3.7672901 -14.6067 191.672
3.90007 -14.6043 191.64
4.03409 -14.6065 191.66901
4.1683502 -14.6094 191.707
4.3022199 -14.6108 191.72501
4.4347 -14.6076 191.68201
4.5657701 -14.6 191.58299
4.6971698 -14.5939 191.50301
4.8281202 -14.5867 191.409
5.0926299 -14.581 191.334
5.2247701 -14.5781 191.29601
5.3558798 -14.5725 191.222
5.4874701 -14.5684 191.16901
5.6188698 -14.5641 191.112
5.7511601 -14.5622 191.08701
5.8831201 -14.5595 191.052
6.01545 -14.5579 191.03101
6.1475 -14.5557 191.002
6.28021 -14.5551 190.994
6.4130201 -14.5547 190.989
6.5475001 -14.5581 191.034
6.6799898 -14.557 191.019
6.8113799 -14.5536 190.97501
6.94139 -14.5475 190.894
7.0721402 -14.5431 190.836
7.2031398 -14.5393 190.787
7.3352599 -14.538 190.769
7.4685102 -14.5388 190.78101
7.6013298 -14.5388 190.78101
7.7332001 -14.5371 190.757
7.8659 -14.5369 190.755
7.9977899 -14.5353 190.73399
8.1314602 -14.5369 190.755
8.2647305 -14.5377 190.765
8.3981199 -14.5387 190.77901
8.5319796 -14.5405 190.802
8.6667004 -14.5437 190.84399
8.8001299 -14.5446 190.856
8.9348402 -14.5476 190.896
9.0696402 -14.5507 190.936
9.2042904 -14.5534 190.972
9.3384104 -14.5552 190.996
9.4719105 -14.5561 191.007
9.6032305 -14.5536 190.974
9.7340698 -14.5504 190.933
9.8641596 -14.5463 190.87801
9.9952698 -14.5437 190.84399
10.127 -14.542 190.82201
10.2598 -14.542 190.82201
10.3932 -14.5428 190.832
10.5271 -14.5442 190.851
10.6623 -14.5474 190.89301
10.7992 -14.5528 190.964
10.9356 -14.5574 191.024
11.0727 -14.5628 191.09599
11.2091 -14.5672 191.153
11.3471 -14.5735 191.23599
11.4865 -14.5815 191.34
11.623 -14.5857 191.395
11.7594 -14.5896 191.44701
11.8984 -14.5966 191.53799
12.0367 -14.6026 191.617
12.1718 -14.6046 191.644
12.3029 -14.6019 191.608
12.4318 -14.5967 191.539
12.5632 -14.5944 191.50999
12.6971 -14.595 191.51801
12.8316 -14.5964 191.536
12.9658 -14.5973 191.548
13.1005 -14.5989 191.569
13.2357 -14.601 191.59599
13.3725 -14.6047 191.644
13.5133 -14.6127 191.75
13.6551 -14.6215 191.86501
13.8005 -14.634 192.03
13.9418 -14.642 192.13499
14.0832 -14.65 192.24001
14.2207 -14.6538 192.28999
14.36 -14.6593 192.362
14.4978 -14.6633 192.41299
14.6331 -14.6647 192.43201
14.7682 -14.6658 192.44701
14.9058 -14.6693 192.493
15.0417 -14.6712 192.51801
15.1785 -14.6739 192.552
15.318 -14.6791 192.62199
15.4568 -14.6836 192.67999
15.5992 -14.6914 192.782
15.7392 -14.6968 192.853
15.8799 -14.7027 192.931
16.022699 -14.7106 193.034
16.1684 -14.7208 193.16901
16.312901 -14.7299 193.287
16.4615 -14.7425 193.453
16.607 -14.7521 193.57899
16.7512 -14.7604 193.688
16.899099 -14.7719 193.838
17.044201 -14.7806 193.95399
17.192801 -14.7924 194.10699
17.345301 -14.8071 194.30099
17.4986 -14.8224 194.502
17.6558 -14.8407 194.742
17.807301 -14.8541 194.91701
17.9631 -14.8707 195.13499
18.1147 -14.8836 195.30499
18.2715 -14.9007 195.528
18.4361 -14.9237 195.83099
18.617599 -14.96 196.30701
18.823799 -15.0155 197.035
18.9937 -15.0414 197.375
19.154499 -15.0598 197.616
19.3064 -15.071 197.763
19.6236 -15.1031 198.186
19.938299 -15.1326 198.57201
20.252399 -15.1608 198.942
20.418699 -15.1815 199.213
20.583799 -15.2009 199.46899
20.7644 -15.2315 199.87
20.9781 -15.2859 200.58299
21.181101 -15.3317 201.185
-1.75845 -14.9406 197.86099
-1.61991 -14.9332 197.763
-1.48146 -14.9254 197.659
-1.34314 -14.9174 197.554
-1.20521 -14.9124 197.487
-1.06757 -14.9101 197.45799
-0.92991102 -14.907 197.416
-0.79184598 -14.8951 197.259
-0.653826 -14.8792 197.048
-0.378775 -14.8518 196.68401
-0.104839 -14.8388 196.51199
1.7779599 -14.5729 192.992
1.9104 -14.5584 192.799
