# .PCD v0.7 - Point Cloud Data file format
VERSION 0.7
FIELDS x y z
SIZE 4 4 4
TYPE F F F
COUNT 1 1 1
WIDTH 1887
HEIGHT 1
VIEWPOINT 0 0 0 1 0 0 0
POINTS 1887
DATA ascii
5.8871799 11.1312 191.18401
6.1529398 11.1304 191.17
6.2886701 11.1351 191.25101
6.4237199 11.1384 191.308
6.5573301 11.1391 191.321
6.6908698 11.1397 191.33099
6.8257098 11.1424 191.377
6.9610701 11.1458 191.435
7.0961099 11.1486 191.483
7.2319298 11.1525 191.55
7.3667402 11.1547 191.588
7.5020199 11.1575 191.63699
7.6363201 11.1588 191.659
7.7719002 11.162 191.71201
7.9053302 11.1619 191.711
8.0403996 11.1641 191.75
8.3121796 11.1706 191.86099
8.4469099 11.1721 191.88699
8.5816498 11.1736 191.91299
8.7151098 11.1735 191.91
8.8484497 11.1731 191.90401
8.9847603 11.1765 191.96201
9.1195297 11.1779 191.98599
9.2573099 11.1829 192.07201
9.3944302 11.187 192.142
9.5315599 11.1909 192.21001
9.6672497 11.1931 192.24699
9.8042698 11.1967 192.31
9.9447098 11.2041 192.436
10.0837 11.2097 192.532
10.2227 11.2152 192.627
10.3636 11.2225 192.752
10.503 11.2281 192.84801
10.6435 11.2347 192.961
10.783 11.2401 193.05499
10.9252 11.2481 193.192
11.0659 11.2544 193.30099
11.2068 11.2608 193.41
11.3484 11.2678 193.53
11.4901 11.2745 193.646
11.6352 11.2845 193.817
11.7757 11.2898 193.909
11.9182 11.297 194.033
12.0606 11.3039 194.14999
12.2059 11.3133 194.312
12.3469 11.3185 194.401
12.4918 11.3272 194.55099
12.6384 11.3372 194.72301
12.7847 11.3468 194.88699
12.9302 11.3553 195.034
13.075 11.3632 195.16901
13.3738 11.3862 195.565
13.5256 11.3995 195.79201
13.6752 11.4105 195.98199
13.8273 11.4235 196.20399
13.9811 11.4376 196.446
14.1354 11.4518 196.69099
14.2896 11.4656 196.92799
14.4479 11.4825 197.218
14.6142 11.5054 197.61
14.7918 11.5365 198.146
14.9545 11.5557 198.47501
15.1061 11.566 198.65199
15.2628 11.5799 198.89101
15.4144 11.5898 199.061
15.5631 11.5973 199.19
15.7142 11.6066 199.349
15.8627 11.6137 199.47099
16.011999 11.6213 199.601
16.1597 11.6276 199.709
16.3092 11.6351 199.838
16.4599 11.6432 199.978
16.6103 11.651 200.11301
16.763 11.6604 200.27299
16.912901 11.6676 200.397
17.065901 11.6768 200.556
17.2124 11.6815 200.636
17.368401 11.6925 200.82401
17.5203 11.7006 200.963
17.681499 11.7147 201.20599
17.8386 11.7259 201.39799
18.0028 11.7415 201.666
18.1621 11.7538 201.877
18.3248 11.768 202.121
18.6717 11.8094 202.83299
18.8564 11.8367 203.302
0.70287001 11.3664 192.916
0.83653402 11.3578 192.769
0.97010797 11.3505 192.646
1.10341 11.3422 192.504
1.23676 11.3361 192.40199
1.3703099 11.3328 192.34599
1.50346 11.3272 192.25
1.63622 11.3198 192.12399
1.76907 11.314 192.02699
1.90194 11.3092 191.94501
2.03422 11.3017 191.81799
2.1668999 11.2973 191.743
2.2995601 11.2933 191.674
2.43205 11.2889 191.60001
2.56427 11.2838 191.513
2.6966701 11.2799 191.44701
2.8283501 11.2735 191.339
2.9603801 11.2691 191.26401
3.0929201 11.2668 191.226
3.2255399 11.2651 191.19701
3.3578501 11.2624 191.151
3.4901199 11.2598 191.10699
3.6230199 11.2594 191.101
3.7552199 11.2569 191.058
3.8886001 11.258 191.076
4.0211501 11.2567 191.054
4.1539698 11.2562 191.04601
4.2873201 11.2571 191.061
4.4197502 11.2557 191.036
4.5535498 11.2577 191.071
4.68716 11.2591 191.095
4.8191299 11.2566 191.052
4.9520402 11.2564 191.049
5.0858002 11.2581 191.078
5.2191701 11.2588 191.09
5.3530202 11.2606 191.12
5.4857302 11.2599 191.108
5.6187401 11.2598 191.10699
5.8865199 11.2631 191.162
6.0180101 11.2601 191.112
6.15203 11.2619 191.142
6.2884002 11.2678 191.243
6.4240899 11.2723 191.319
6.5581002 11.2737 191.343
6.6924801 11.2757 191.377
6.8252501 11.275 191.364
6.96173 11.2802 191.453
7.09758 11.2843 191.52299
7.23347 11.2883 191.591
7.3677402 11.2897 191.614
7.5036302 11.2934 191.67799
7.6379199 11.2947 191.69901
7.7736902 11.2981 191.756
7.9077201 11.2988 191.769
8.04282 11.3011 191.808
8.17805 11.3035 191.84801
8.3140001 11.3067 191.903
8.4492903 11.309 191.94099
8.5840302 11.3104 191.966
8.7179203 11.3108 191.972
8.8525 11.312 191.992
8.9884996 11.3149 192.04201
9.1226501 11.3155 192.052
9.2608995 11.3211 192.146
9.3979702 11.3251 192.214
9.5356102 11.3296 192.291
9.6725903 11.3333 192.353
9.8114204 11.3389 192.45
9.9513102 11.3457 192.564
10.0885 11.3493 192.625
10.227 11.3541 192.70799
10.3687 11.3623 192.847
10.5096 11.3696 192.96899
10.6503 11.3763 193.084
10.7922 11.3843 193.22
10.9333 11.3911 193.33501
11.0736 11.397 193.436
11.2149 11.4038 193.55
11.3568 11.4109 193.67101
11.5009 11.4201 193.828
11.6443 11.4285 193.96899
11.7852 11.4341 194.065
11.9283 11.4418 194.196
12.0727 11.4506 194.34399
12.2156 11.4577 194.466
12.3556 11.462 194.53799
12.5026 11.4727 194.71899
12.6499 11.4833 194.89999
12.7944 11.4912 195.034
12.9424 11.5021 195.21899
13.0889 11.5114 195.377
13.2364 11.5214 195.54601
13.388 11.5347 195.772
13.54 11.5481 196
13.689 11.5587 196.17999
13.8419 11.5724 196.411
14.0005 11.5905 196.71899
14.1569 11.6064 196.989
14.3158 11.6241 197.289
14.479 11.6449 197.642
14.6511 11.6724 198.10899
14.8148 11.6927 198.455
14.9664 11.7033 198.633
15.1147 11.711 198.765
15.2703 11.7242 198.989
15.4193 11.7322 199.125
15.5683 11.74 199.257
15.7161 11.7468 199.37199
15.8641 11.7537 199.489
16.013901 11.7617 199.625
16.1626 11.7687 199.745
16.310101 11.7749 199.84801
16.4603 11.7828 199.983
16.609699 11.79 200.105
16.760201 11.7979 200.239
16.911699 11.8063 200.383
17.063999 11.8152 200.533
17.2125 11.8213 200.63699
17.3678 11.832 200.81799
17.521299 11.8412 200.97501
17.68 11.8538 201.189
17.8372 11.8652 201.382
18.003 11.8821 201.66901
18.1649 11.8962 201.908
18.3279 11.9108 202.15601
18.4953 11.928 202.44701
18.6726 11.9513 202.843
18.8568 11.9786 203.306
0.97017002 11.4854 192.658
1.10348 11.477 192.517
1.23689 11.4713 192.42101
1.37037 11.4673 192.355
1.50352 11.4616 192.258
1.63643 11.4551 192.149
1.76932 11.4494 192.054
1.90214 11.4441 191.965
2.03439 11.4363 191.83501
2.1672699 11.4328 191.77499
2.2997999 11.428 191.69501
2.43208 11.4224 191.60201
2.56463 11.4187 191.53999
2.6968901 11.4142 191.464
2.82868 11.4081 191.362
2.96099 11.4046 191.30299
3.0933399 11.4016 191.252
3.22558 11.3984 191.19901
3.35776 11.3953 191.146
3.49016 11.3931 191.11
3.6232901 11.3934 191.11501
3.75526 11.3901 191.06
3.8884599 11.3907 191.069
4.0210299 11.3894 191.048
4.1539102 11.3891 191.043
4.28723 11.39 191.05701
4.4195199 11.3881 191.026
4.5538001 11.3914 191.08099
4.6870699 11.392 191.091
4.8180399 11.3871 191.009
4.9513698 11.3879 191.02299
5.0854702 11.3904 191.065
5.2189598 11.3915 191.08299
5.3519802 11.3915 191.08299
5.6186199 11.3927 191.103
5.75282 11.395 191.142
5.88623 11.3957 191.153
6.0177398 11.3927 191.103
6.1519599 11.3949 191.14
6.28966 11.4033 191.28101
6.4240799 11.4055 191.319
6.5582199 11.4072 191.34599
6.6929498 11.4098 191.39
6.8262501 11.4099 191.392
6.9625702 11.415 191.47701
7.0984902 11.4192 191.547
7.2347698 11.4238 191.625
7.3691301 11.4253 191.64999
7.5049 11.4289 191.71001
7.6397099 11.4309 191.744
7.7746401 11.433 191.78
7.90974 11.4353 191.81799
8.04494 11.4377 191.858
8.1805601 11.4406 191.90601
8.31637 11.4436 191.957
8.4516001 11.4458 191.994
8.5868902 11.448 192.03
8.7209196 11.4484 192.03799
8.8568497 11.4513 192.08701
8.9925499 11.4539 192.129
9.1278296 11.4558 192.161
9.2656298 11.4608 192.245
9.40312 11.4652 192.319
9.5411997 11.4703 192.40401
9.6791401 11.475 192.483
9.8174105 11.48 192.567
9.9577799 11.4873 192.69
10.0958 11.4917 192.76401
10.2346 11.4969 192.851
10.3759 11.5047 192.98199
10.5175 11.5126 193.11501
10.6567 11.5178 193.201
10.7999 11.527 193.356
10.9417 11.5347 193.48399
11.0833 11.5418 193.605
11.2254 11.5494 193.731
11.3686 11.5578 193.873
11.5119 11.5662 194.01401
11.655 11.5742 194.147
11.7955 11.5794 194.235
11.9385 11.587 194.362
12.0826 11.5955 194.505
12.2246 11.6017 194.60899
12.3695 11.6105 194.757
12.516 11.6207 194.927
12.6618 11.6299 195.082
12.8079 11.6393 195.239
12.9518 11.6465 195.36
13.1039 11.6608 195.60001
13.255 11.674 195.82201
13.4048 11.6857 196.019
13.5518 11.6948 196.17
13.7053 11.7093 196.414
13.8638 11.7277 196.722
14.0237 11.7469 197.045
14.1818 11.7643 197.336
14.3502 11.7898 197.76401
14.5156 11.8124 198.14301
14.6765 11.8309 198.453
14.9751 11.8485 198.748
15.1222 11.8553 198.86301
15.276 11.8673 199.064
15.4248 11.8751 199.19501
15.572 11.8817 199.30499
15.7187 11.8876 199.405
15.8664 11.8943 199.517
16.0152 11.9017 199.64101
16.311899 11.9153 199.87
16.460199 11.922 199.98199
16.609301 11.9291 200.10001
16.761 11.9379 200.24899
16.913401 11.9471 200.40199
17.0634 11.9544 200.526
17.2129 11.9613 200.642
17.368 11.972 200.82001
17.521601 11.9814 200.978
17.6798 11.9938 201.187
17.837 12.0054 201.38
18.002899 12.0225 201.668
18.167299 12.0384 201.93401
18.3305 12.0533 202.185
18.498301 12.0709 202.48
18.674101 12.0936 202.85899
18.8591 12.1216 203.33
1.10366 11.6129 192.547
1.23706 11.6069 192.448
1.3704799 11.6023 192.371
1.50353 11.5956 192.25999
1.63656 11.5898 192.164
1.76955 11.5846 192.078
1.90224 11.5784 191.97501
2.03473 11.5718 191.866
2.1679101 11.5698 191.832
2.3004401 11.5647 191.74699
2.43262 11.5585 191.645
2.5652201 11.5548 191.584
2.69732 11.5494 191.494
2.8292601 11.5438 191.401
2.9612401 11.5388 191.319
3.09356 11.5356 191.26601
3.2258201 11.5324 191.213
3.3586099 11.5313 191.19501
3.6235199 11.5272 191.127
3.7553201 11.5234 191.063
3.88854 11.524 191.073
4.0209498 11.5223 191.04401
4.1543598 11.5234 191.064
4.2873001 11.5232 191.06
4.4193001 11.5206 191.017
4.5527201 11.5217 191.036
4.6869402 11.5248 191.08501
4.8171601 11.5181 190.97501
4.9505601 11.5191 190.992
5.0859799 11.5247 191.084
5.21945 11.5257 191.101
5.3520398 11.5247 191.08501
5.6189899 11.5266 191.11501
5.7530799 11.5286 191.14999
5.8864498 11.5292 191.16
6.0186901 11.5276 191.133
6.1522899 11.5287 191.14999
6.2896399 11.5365 191.28101
6.4238701 11.5384 191.312
6.5583501 11.5407 191.35001
6.6931901 11.5435 191.397
6.8274498 11.5453 191.425
6.9635501 11.55 191.50301
7.0992098 11.5538 191.567
7.2360802 11.5594 191.66
7.3702202 11.5605 191.67799
7.5061498 11.5644 191.742
7.6412802 11.5668 191.783
7.77633 11.5691 191.821
7.9113598 11.5713 191.85699
8.0465202 11.5736 191.896
8.1822996 11.5767 191.94701
8.3183203 11.5801 192.00301
8.4544497 11.5834 192.05901
8.5899601 11.5859 192.099
8.72435 11.5868 192.11301
8.8602304 11.5896 192.16
8.99685 11.5932 192.22099
9.1322098 11.5952 192.25301
9.2702999 11.6005 192.342
9.4083004 11.6056 192.425
9.5461702 11.6103 192.504
9.8263302 11.6247 192.742
9.9661398 11.6312 192.851
10.1042 11.6356 192.923
10.2421 11.6397 192.992
10.384 11.6482 193.133
10.5272 11.6579 193.29201
10.6675 11.6641 193.397
10.8098 11.6725 193.535
10.9511 11.6794 193.64999
11.0934 11.6874 193.782
11.2375 11.6969 193.94
11.38 11.7046 194.067
11.5239 11.7135 194.216
11.6649 11.7194 194.313
11.8062 11.7254 194.412
12.0932 11.7412 194.674
12.2372 11.7494 194.80901
12.383 11.759 194.97
12.5279 11.7676 195.11301
12.6737 11.7769 195.26601
12.8215 11.7878 195.44701
12.9678 11.7971 195.601
13.1176 11.8094 195.80499
13.2701 11.8238 196.04401
13.416 11.8321 196.18201
13.5651 11.8431 196.364
13.7275 11.8653 196.731
13.8934 11.89 197.142
14.0518 11.908 197.439
14.2184 11.9325 197.84599
14.3816 11.9536 198.19701
14.5354 11.9667 198.41299
14.686 11.9769 198.582
14.8355 11.9859 198.73199
14.9809 11.9916 198.826
15.1289 11.9992 198.952
15.2812 12.01 199.131
15.4284 12.0167 199.242
15.5735 12.0216 199.323
15.7203 12.0277 199.425
15.8664 12.0333 199.517
16.0142 12.04 199.62801
16.1658 12.0494 199.785
16.312401 12.0549 199.87601
16.4597 12.0609 199.97501
16.6082 12.0677 200.088
16.7612 12.0776 200.252
16.9132 12.0865 200.39999
17.063 12.0938 200.521
17.212799 12.101 200.64
17.3682 12.112 200.82201
17.5217 12.1215 200.98
17.6796 12.1338 201.18401
17.838301 12.1465 201.394
18.004101 12.1638 201.68201
18.169201 12.1803 201.955
18.3309 12.1944 202.188
18.499399 12.2127 202.492
18.6749 12.2353 202.867
18.8589 12.2632 203.32899
1.10375 11.748 192.564
1.23713 11.7416 192.45799
1.37076 11.7387 192.41
1.50375 11.7311 192.287
1.6367 11.7247 192.181
1.76974 11.7197 192.099
1.90267 11.7148 192.019
2.16838 11.7059 191.873
2.30123 11.7022 191.813
2.4335999 11.6967 191.722
2.5660999 11.6923 191.64999
2.6982 11.6866 191.556
2.83009 11.6805 191.457
2.96189 11.6747 191.36099
3.0943301 11.6717 191.313
3.2268701 11.6694 191.27499
3.35969 11.6683 191.256
3.49176 11.6647 191.19701
3.7557499 11.6578 191.08501
3.8891101 11.6588 191.101
4.0212898 11.6563 191.061
4.15481 11.6578 191.084
4.2873802 11.6565 191.064
4.4195499 11.6543 191.028
4.55194 11.6528 191.00301
4.6859999 11.6555 191.047
4.8177299 11.6525 190.99699
4.9510398 11.6533 191.011
5.0858898 11.6576 191.08099
5.21907 11.6579 191.08701
5.3529902 11.6599 191.119
5.4858098 11.6594 191.11099
5.6192999 11.6603 191.12601
5.7527399 11.6611 191.13901
5.8871899 11.6639 191.18401
6.2899199 11.6703 191.289
6.4242001 11.6723 191.32201
6.5585399 11.6743 191.356
6.6945601 11.6792 191.436
6.8289199 11.6811 191.467
6.9650502 11.6859 191.545
7.10146 11.6909 191.627
7.23699 11.6944 191.68401
7.3710399 11.6953 191.7
7.5067801 11.6989 191.758
7.64254 11.7024 191.815
7.7779698 11.7052 191.862
7.91365 11.7083 191.91299
8.0490198 11.7109 191.955
8.1849298 11.7142 192.009
8.32131 11.718 192.071
8.4583397 11.7226 192.147
8.5943499 11.7257 192.19701
8.7297001 11.7277 192.231
8.8668499 11.7321 192.30299
9.00175 11.7335 192.325
9.1380796 11.7366 192.377
9.2771502 11.7431 192.48399
9.4144497 11.7473 192.55099
9.5546598 11.7548 192.675
9.6950102 11.7624 192.799
9.8341599 11.7683 192.896
9.9744596 11.7754 193.01199
10.1115 11.7785 193.063
10.2492 11.7823 193.12601
10.3929 11.7928 193.297
10.538 11.8046 193.49001
10.6785 11.8111 193.597
10.9603 11.8243 193.814
11.1049 11.8346 193.98199
11.247 11.842 194.104
11.3918 11.8521 194.269
11.5357 11.861 194.416
11.6771 11.8671 194.515
11.8188 11.8734 194.619
11.9619 11.881 194.743
12.106 11.8893 194.88
12.2514 11.8988 195.035
12.396 11.9073 195.175
12.542 11.9169 195.332
12.69 11.9282 195.517
12.8384 11.9396 195.70399
12.9863 11.9504 195.88
13.284 11.9729 196.24899
13.4342 11.985 196.448
13.5935 12.0049 196.774
13.7575 12.0286 197.162
13.9219 12.052 197.54601
14.0879 12.0765 197.94701
14.2435 12.0916 198.19501
14.3927 12.101 198.349
14.544 12.112 198.53
14.6927 12.1207 198.672
14.84 12.128 198.79201
14.9861 12.1342 198.894
15.1351 12.1427 199.034
15.2844 12.1512 199.173
15.4307 12.1573 199.272
15.5747 12.1614 199.339
15.7211 12.1673 199.436
15.8663 12.1722 199.517
16.014 12.1789 199.625
16.1661 12.1888 199.789
16.312401 12.1942 199.877
16.4592 12.1998 199.96899
16.6073 12.2064 200.077
16.7593 12.2157 200.229
16.912201 12.2254 200.388
17.063299 12.2337 200.52499
17.2134 12.2412 200.647
17.368601 12.2522 200.827
17.5221 12.2617 200.98399
17.678801 12.2734 201.175
17.839199 12.2874 201.405
18.005199 12.3051 201.694
18.1689 12.3209 201.953
18.3304 12.3349 202.183
18.4984 12.3531 202.48199
18.674299 12.3763 202.86099
18.857599 12.4039 203.314
1.10392 11.884 192.593
1.37103 11.875 192.448
1.50411 11.868 192.334
1.63705 11.861 192.22099
1.77022 11.8567 192.151
1.9033099 11.8525 192.08299
2.0360601 11.8469 191.992
2.1689899 11.8429 191.92799
2.3022799 11.8413 191.901
2.43452 11.8347 191.79401
2.56703 11.83 191.71899
2.6991401 11.8241 191.623
2.8309 11.8173 191.51199
3.09554 11.8096 191.38901
3.22773 11.8058 191.326
3.3597801 11.8018 191.261
3.4923 11.7997 191.22701
3.6249399 11.7981 191.202
3.7563701 11.7928 191.116
3.88943 11.7929 191.117
4.0213599 11.7896 191.064
4.1548901 11.7911 191.088
4.28685 11.7882 191.03999
4.4197102 11.7878 191.034
4.55233 11.7869 191.019
4.68542 11.7871 191.024
4.8180799 11.7863 191.011
4.9517202 11.7879 191.037
5.0863199 11.7917 191.097
5.21874 11.7903 191.075
5.3533602 11.7938 191.132
5.48734 11.7958 191.164
5.6203399 11.7956 191.162
5.7535901 11.796 191.16701
5.8877201 11.7981 191.201
6.0211601 11.7987 191.21201
6.15555 11.8012 191.252
6.2908101 11.8052 191.31599
6.4251399 11.8073 191.35001
6.5611701 11.8124 191.43201
6.69561 11.8144 191.466
6.8298302 11.816 191.492
6.9664898 11.8217 191.584
7.1019402 11.8252 191.64
7.2377701 11.8291 191.70399
7.3716998 11.8299 191.717
7.5069199 11.8327 191.76199
7.6435599 11.8375 191.841
7.7797098 11.8415 191.905
7.9163299 11.846 191.978
8.0514603 11.8482 192.013
8.1877699 11.852 192.075
8.3248901 11.8569 192.15401
8.46241 11.8621 192.239
8.6001101 11.8675 192.326
8.7362404 11.8705 192.375
8.87325 11.8747 192.442
9.0099297 11.8782 192.5
9.2839098 11.8859 192.62399
9.4236603 11.893 192.739
9.5616903 11.8978 192.817
9.7037497 11.9074 192.97301
9.8426704 11.913 193.063
9.9827499 11.9197 193.173
10.1227 11.9262 193.278
10.2619 11.9316 193.364
10.4038 11.9399 193.5
10.5461 11.9486 193.64
10.6881 11.9566 193.771
10.8307 11.9651 193.908
10.97 11.9698 193.98399
11.1161 11.9817 194.177
11.2592 11.9901 194.314
11.4029 11.999 194.457
11.5461 12.0072 194.591
11.6889 12.0147 194.71201
11.8314 12.0218 194.826
11.9735 12.0283 194.93201
12.1188 12.0378 195.086
12.4098 12.0567 195.392
12.5594 12.0697 195.603
12.7074 12.081 195.786
12.8529 12.0896 195.92599
12.9996 12.0992 196.08099
13.1475 12.1097 196.25101
13.299 12.1233 196.472
13.461 12.146 196.839
13.6245 12.1696 197.22301
13.7904 12.1949 197.632
13.9533 12.2171 197.992
14.2538 12.2384 198.33701
14.4008 12.2461 198.461
14.6998 12.265 198.76801
14.8467 12.272 198.882
14.9914 12.2771 198.964
15.1374 12.2832 199.063
15.2852 12.2906 199.183
15.4301 12.2956 199.26401
15.5751 12.3006 199.34399
15.7223 12.3072 199.452
15.8675 12.3121 199.532
16.0142 12.3181 199.62801
16.166201 12.328 199.789
16.312 12.3331 199.871
16.458799 12.3388 199.964
16.6078 12.3461 200.08299
16.758801 12.3547 200.22301
16.9114 12.3644 200.379
17.2136 12.3811 200.64999
17.3692 12.3924 200.83299
17.5219 12.4016 200.98199
17.6789 12.4136 201.17599
17.839899 12.4282 201.412
18.0058 12.446 201.701
18.167999 12.4609 201.94299
18.3311 12.4762 202.19099
18.498199 12.494 202.479
18.674101 12.5174 202.85899
18.855499 12.5442 203.29201
1.10413 12.0205 192.631
1.23778 12.0161 192.56
1.50488 12.0081 192.43201
1.63781 12.0005 192.311
1.9039299 11.9902 192.146
2.0366399 11.984 192.04601
2.16975 11.9808 191.995
2.3029201 11.9783 191.95399
2.43556 11.9734 191.877
2.5680399 11.9683 191.795
2.8320301 11.9554 191.589
2.9633999 11.9473 191.459
3.09618 11.9454 191.42799
3.22838 11.9415 191.36501
3.3605599 11.9378 191.306
3.4930401 11.9354 191.26801
3.62515 11.932 191.213
3.7570701 11.9282 191.15199
3.8898301 11.9272 191.13699
4.0222001 11.9252 191.104
4.1550398 11.9246 191.095
4.2877102 11.9236 191.07899
4.42067 11.9235 191.076
4.5528498 11.9213 191.041
4.6866598 11.9233 191.07401
4.8183498 11.9201 191.022
4.9524298 11.9227 191.064
5.0868101 11.9259 191.11501
5.2202301 11.9268 191.129
5.35396 11.9283 191.153
5.4886198 11.9317 191.209
5.6209798 11.9301 191.183
5.7548399 11.9317 191.209
5.8889198 11.9337 191.24001
6.02247 11.9345 191.254
6.15657 11.9364 191.283
6.29145 11.9396 191.336
6.4267001 11.9435 191.397
6.5619001 11.947 191.45399
6.6964002 11.9492 191.489
6.8316202 11.9526 191.54201
6.9676199 11.9571 191.61501
7.1037998 11.9618 191.69099
7.2394099 11.9654 191.748
7.3730602 11.9656 191.752
7.5096202 11.9705 191.83099
7.6458998 11.9748 191.899
7.78338 11.9808 191.995
7.9201999 11.9856 192.07201
8.1929903 11.9935 192.198
8.3287201 11.9962 192.243
8.4684496 12.0046 192.377
8.6059504 12.0096 192.457
8.8804197 12.0184 192.59801
9.0180101 12.0231 192.673
9.1525898 12.0237 192.68201
9.2912798 12.0296 192.77699
9.4315796 12.0374 192.901
9.57092 12.0437 193.00301
9.7126999 12.0529 193.151
9.85392 12.0612 193.283
9.9931803 12.0669 193.375
10.1326 12.0726 193.466
10.2734 12.0798 193.582
10.4142 12.0869 193.69501
10.5562 12.0951 193.826
10.7 12.105 193.985
10.9838 12.1202 194.229
11.1275 12.1295 194.37801
11.2741 12.1416 194.571
11.4152 12.1476 194.668
11.5573 12.1546 194.77901
11.8433 12.1698 195.02299
11.9853 12.1761 195.125
12.1312 12.1861 195.286
12.2781 12.197 195.46001
12.426 12.2086 195.646
12.5734 12.2196 195.82201
12.7204 12.2298 195.985
12.8664 12.2389 196.132
13.0172 12.2523 196.34599
13.1682 12.2657 196.561
13.3278 12.2866 196.896
13.4881 12.3078 197.23599
13.6513 12.3312 197.61099
13.8157 12.3553 197.996
13.9719 12.3715 198.256
14.1188 12.3793 198.38
14.2639 12.3854 198.479
14.4095 12.3918 198.58099
14.5556 12.3985 198.688
14.7044 12.4073 198.83
14.8499 12.4132 198.924
15.1392 12.4233 199.086
15.2867 12.4306 199.203
15.4328 12.4366 199.299
15.5766 12.4406 199.36301
15.7226 12.4463 199.455
15.8681 12.4516 199.539
16.013901 12.4569 199.625
16.166201 12.4672 199.789
16.311399 12.4718 199.864
16.4587 12.4781 199.964
16.6063 12.4844 200.065
16.759001 12.4944 200.22501
16.9114 12.504 200.379
17.061001 12.5114 200.498
17.214199 12.5213 200.657
17.368799 12.5321 200.82899
17.521299 12.5412 200.97501
17.679399 12.5541 201.18201
17.8395 12.5682 201.408
18.0033 12.5847 201.672
18.1651 12.5996 201.911
18.330999 12.617 202.19
18.500401 12.6365 202.50301
18.6752 12.6594 202.871
18.8542 12.6849 203.278
1.23806 12.1529 192.603
1.37185 12.1503 192.563
1.5052299 12.145 192.47701
1.6383801 12.1387 192.37801
1.7716 12.1338 192.30099
1.90461 12.1284 192.215
2.0373001 12.1217 192.10899
2.1703899 12.1181 192.052
2.3034 12.1145 191.994
2.43612 12.1098 191.92101
2.5687201 12.1051 191.845
2.70087 12.0988 191.746
2.8331599 12.0937 191.66499
2.9646399 12.0858 191.539
3.0969901 12.0819 191.478
3.2290699 12.0774 191.40601
3.3615699 12.0747 191.36301
3.49403 12.072 191.32201
3.6261001 12.0683 191.263
3.7575901 12.063 191.179
4.0228801 12.0603 191.136
4.1561399 12.0609 191.145
4.2886801 12.0594 191.12199
4.4214602 12.0587 191.11
4.5535302 12.0561 191.069
4.68715 12.0577 191.09399
4.81919 12.0552 191.05499
4.9531002 12.0574 191.09
5.0870399 12.0596 191.12399
5.2209501 12.0616 191.15601
5.3552098 12.0642 191.198
5.48981 12.0675 191.25
5.6226501 12.0669 191.24001
5.7571001 12.0696 191.284
5.8909602 12.0711 191.30701
6.0243001 12.0714 191.312
6.1581502 12.0727 191.332
6.2930498 12.076 191.384
6.4278698 12.079 191.431
6.56287 12.0822 191.48199
6.6985798 12.0865 191.55099
6.8331599 12.0887 191.58501
6.9690199 12.093 191.65401
7.1051698 12.0976 191.72701
7.2409601 12.1015 191.789
7.37503 12.1024 191.80299
7.5127101 12.1091 191.91
7.64958 12.1143 191.992
7.7869 12.12 192.082
7.92348 12.1244 192.15199
8.0601997 12.1288 192.222
8.19835 12.1353 192.32401
8.3351002 12.1394 192.39
8.4751797 12.1482 192.52901
8.6132402 12.1539 192.619
8.7503595 12.1581 192.686
8.8900099 12.1657 192.806
9.0256996 12.1677 192.83701
9.1599302 12.1676 192.83701
9.3012505 12.1769 192.98399
9.4428997 12.1863 193.133
9.58393 12.1947 193.26601
9.7235699 12.2011 193.367
9.8640699 12.2084 193.483
10.0043 12.2151 193.589
10.2857 12.2293 193.813
10.4264 12.2361 193.92101
10.5682 12.2439 194.045
10.7115 12.2533 194.194
10.8529 12.2604 194.306
11.1409 12.2796 194.61099
11.287 12.2911 194.79401
11.5687 12.3023 194.97099
11.7116 12.3099 195.091
11.9989 12.326 195.34599
12.1471 12.3384 195.54201
12.2948 12.35 195.72701
12.4392 12.3581 195.855
12.7353 12.3808 196.216
12.8849 12.3933 196.41299
13.202 12.4344 197.064
13.3547 12.4489 197.295
13.5153 12.4703 197.634
13.6722 12.488 197.914
13.8328 12.5086 198.24001
13.9824 12.519 198.40601
14.1277 12.5254 198.507
14.4158 12.5355 198.66701
14.5608 12.5414 198.75999
14.7069 12.5479 198.86301
14.8522 12.5537 198.955
14.9951 12.5574 199.01401
15.1393 12.5621 199.088
15.2867 12.5694 199.203
15.4338 12.5762 199.312
15.5782 12.5807 199.384
15.7231 12.5856 199.46201
15.8689 12.5912 199.549
16.015499 12.5972 199.644
16.1672 12.6071 199.80099
16.310699 12.6105 199.855
16.458099 12.6169 199.95599
16.606001 12.6235 200.061
16.759001 12.6338 200.22501
16.910299 12.6427 200.366
17.059601 12.65 200.481
17.2131 12.6603 200.644
17.3678 12.6712 200.81799
17.5203 12.6804 200.964
17.677999 12.6932 201.166
17.8374 12.707 201.384
18.000799 12.7234 201.644
18.162901 12.7386 201.886
18.3297 12.7569 202.175
18.4988 12.7765 202.48599
18.6759 12.8012 202.87801
18.857 12.8284 203.30901
19.045099 12.8598 203.806
1.2385 12.2914 192.67101
1.37219 12.2875 192.61
1.6390899 12.278 192.461
1.77235 12.273 192.383
1.90545 12.2676 192.299
2.0383101 12.2616 192.20399
2.1712699 12.2568 192.13
2.3043001 12.253 192.069
2.56933 12.2416 191.89101
2.7014 12.2348 191.784
2.96559 12.2231 191.601
3.0978999 12.2189 191.534
3.2296901 12.213 191.44299
3.3617101 12.2084 191.371
3.4946001 12.2073 191.353
3.6268499 12.204 191.302
3.75822 12.1982 191.21001
3.8917501 12.1995 191.231
4.0234199 12.1951 191.162
4.1567001 12.1957 191.17101
4.2896199 12.1952 191.164
4.42277 12.1954 191.16701
4.5550199 12.1932 191.132
4.6884699 12.1942 191.14799
4.8207998 12.1923 191.119
4.9543099 12.1935 191.13699
5.0879402 12.1949 191.158
5.2224498 12.1982 191.211
5.3564901 12.2003 191.244
5.4908299 12.203 191.286
5.6241498 12.2034 191.291
5.7584 12.2056 191.327
5.8917699 12.206 191.33299
6.0255299 12.2071 191.351
6.1594801 12.2086 191.37399
6.2944999 12.2121 191.42799
6.4288001 12.2141 191.459
6.5644102 12.2184 191.52699
6.7006798 12.2238 191.61099
6.8350101 12.2254 191.63699
6.9713898 12.2307 191.71899
7.1078501 12.2358 191.8
7.2432799 12.239 191.85001
7.3790898 12.2428 191.909
7.5159998 12.2482 191.994
7.6535602 12.2544 192.092
7.7919402 12.2617 192.20599
7.9293699 12.2674 192.29401
8.0675497 12.2739 192.397
8.20576 12.2803 192.49699
8.3428001 12.2848 192.567
8.4816103 12.2917 192.675
8.6210499 12.2992 192.79401
8.7589598 12.3044 192.87601
8.89781 12.3108 192.97501
9.0341902 12.3135 193.01801
9.1725502 12.3189 193.10201
9.4560604 12.338 193.40199
9.5955 12.3442 193.49899
9.7363997 12.3521 193.62199
9.8772898 12.3597 193.742
10.0162 12.3647 193.82001
10.1554 12.3698 193.901
10.2965 12.3772 194.01601
10.4369 12.3836 194.117
10.5787 12.3913 194.23801
10.7228 12.4017 194.39999
10.8641 12.4085 194.506
11.0087 12.4188 194.668
11.2961 12.4369 194.952
11.4375 12.443 195.048
11.5792 12.4494 195.14799
11.7239 12.4588 195.29601
11.8692 12.4686 195.44901
12.0149 12.4786 195.605
12.1631 12.491 195.8
12.4581 12.5134 196.15199
12.6036 12.5223 196.29201
12.757 12.5388 196.549
12.9155 12.5599 196.879
13.0716 12.5782 197.16701
13.3817 12.6117 197.692
13.5321 12.6237 197.88
13.6863 12.6389 198.118
13.8402 12.6534 198.347
13.9907 12.6647 198.52299
14.1333 12.6687 198.58501
14.2759 12.6725 198.645
14.4205 12.678 198.73199
14.5644 12.6829 198.808
14.7095 12.6887 198.899
14.8533 12.6932 198.97
14.9962 12.6969 199.028
15.1409 12.7021 199.11
15.2887 12.7098 199.229
15.4352 12.7162 199.33
15.5796 12.7208 199.40199
15.7242 12.7254 199.47501
15.8695 12.7306 199.55701
16.016701 12.7372 199.66
16.1672 12.7463 199.80099
16.310499 12.7496 199.854
16.4573 12.7555 199.946
16.6049 12.762 200.048
16.7577 12.7723 200.21001
16.9091 12.7814 200.35201
17.058201 12.7886 200.465
17.211201 12.7986 200.62199
17.3666 12.8102 200.804
17.518299 12.8189 200.94099
17.6745 12.8308 201.12601
17.8337 12.8446 201.342
17.998501 12.8622 201.618
18.1619 12.8785 201.875
18.3283 12.8968 202.16
18.496599 12.916 202.46201
18.677099 12.9434 202.892
18.8608 12.9726 203.35001
19.046499 13.0027 203.821
1.37273 12.4266 192.686
1.50642 12.4229 192.629
1.77334 12.4139 192.49001
1.90618 12.4064 192.373
2.17185 12.394 192.181
2.30514 12.3913 192.14
2.4378099 12.3858 192.054
2.57019 12.3794 191.955
2.70244 12.3731 191.85699
2.83459 12.3669 191.76199
2.96668 12.3611 191.67101
3.0988801 12.3562 191.595
3.2309599 12.3512 191.51801
3.4958401 12.345 191.42101
3.62797 12.3411 191.36099
3.7594399 12.3354 191.27299
3.89292 12.3364 191.28799
4.0250301 12.3332 191.23801
4.15834 12.3337 191.24699
4.4236698 12.3311 191.20599
4.55654 12.3305 191.196
4.6900702 12.3316 191.213
4.82267 12.3303 191.19299
4.9563398 12.3317 191.215
5.0900602 12.3331 191.23801
5.22403 12.3351 191.269
5.35745 12.3357 191.278
5.4916701 12.3381 191.315
5.6255498 12.3396 191.338
5.7599101 12.3421 191.377
5.8934598 12.3428 191.388
6.0276198 12.3447 191.41701
6.1617699 12.3465 191.44501
6.2965002 12.3494 191.489
6.4315901 12.3528 191.54201
6.5673399 12.3573 191.612
6.7034602 12.3624 191.69099
6.83742 12.3633 191.705
6.9739199 12.3687 191.789
7.1107998 12.3745 191.88
7.2467198 12.3785 191.942
7.3828402 12.3827 192.006
7.52073 12.3897 192.114
7.6577902 12.3951 192.198
7.79808 12.4054 192.358
7.9376001 12.4142 192.494
8.0752697 12.4198 192.58099
8.2140903 12.427 192.69299
8.3507004 12.4307 192.75
8.4895802 12.4375 192.85699
8.6296997 12.446 192.98801
8.76824 12.4519 193.08
9.04562 12.4637 193.263
9.1837597 12.4686 193.338
9.3246698 12.4771 193.47
9.6063805 12.4931 193.718
9.7467604 12.5002 193.828
9.88766 12.5078 193.94501
10.1676 12.52 194.13499
10.3085 12.527 194.243
10.4477 12.5317 194.317
10.5913 12.5416 194.47
10.7347 12.551 194.61501
10.8783 12.5603 194.761
11.0198 12.5671 194.86501
11.1656 12.5786 195.043
11.306 12.5836 195.12199
11.4496 12.5922 195.254
11.5928 12.6001 195.37801
11.7373 12.6093 195.519
11.8837 12.6201 195.688
12.0303 12.6311 195.85699
12.1779 12.6428 196.039
12.3285 12.6573 196.26401
12.4782 12.6705 196.468
12.6275 12.683 196.66299
12.7851 12.7037 196.983
12.9439 12.725 197.313
13.0924 12.7358 197.481
13.245 12.7504 197.707
13.3971 12.7641 197.92
13.5456 12.7742 198.077
13.6955 12.7854 198.25101
13.8478 12.7986 198.45599
13.9963 12.8081 198.603
14.1376 12.8109 198.645
14.2807 12.8152 198.71201
14.4235 12.8191 198.77299
14.5664 12.8231 198.83501
14.711 12.8285 198.91901
14.8547 12.833 198.989
14.9979 12.837 199.05099
15.1437 12.8432 199.147
15.291 12.8504 199.258
15.4365 12.8561 199.34599
15.5805 12.8604 199.414
15.7249 12.865 199.485
15.8699 12.87 199.562
16.0161 12.8758 199.653
16.166201 12.8847 199.78999
16.310801 12.889 199.856
16.456499 12.8942 199.937
16.6033 12.9001 200.02901
16.754999 12.9096 200.177
16.9083 12.9203 200.342
17.0576 12.9278 200.45799
17.2087 12.9365 200.593
17.3647 12.9486 200.782
17.5166 12.9576 200.92
17.672199 12.9691 201.099
17.8309 12.9828 201.312
17.9963 13.001 201.59399
18.161501 13.0188 201.87
18.3274 13.0369 202.14999
18.499599 13.0591 202.495
18.679701 13.0865 202.92
18.862101 13.1152 203.364
19.0474 13.1453 203.83099
1.37336 12.5665 192.774
1.50709 12.5626 192.714
1.6404999 12.5569 192.62601
1.90712 12.5465 192.468
2.0399401 12.5394 192.358
2.306 12.5298 192.211
2.4386001 12.5236 192.116
2.57146 12.5193 192.05
2.7036099 12.5121 191.94
2.83552 12.5046 191.82401
2.96771 12.4989 191.737
3.10005 12.4943 191.66701
3.23225 12.4896 191.59399
3.3647001 12.4861 191.541
3.6287301 12.477 191.401
3.7604799 12.4721 191.325
3.8936701 12.4721 191.326
4.0257001 12.4685 191.27
4.1596298 12.4708 191.306
4.2925 12.4699 191.29201
4.4256701 12.4699 191.29201
4.6921301 12.4702 191.297
4.8245702 12.4683 191.26801
4.9579301 12.4689 191.276
5.0918002 12.4706 191.30299
5.2259998 12.4731 191.341
5.35988 12.4746 191.36501
5.4942398 12.4772 191.405
5.6278801 12.4781 191.418
5.7620902 12.4802 191.45
5.8962598 12.482 191.479
6.0297999 12.4826 191.48599
6.16397 12.4843 191.513
6.2983599 12.4864 191.54601
6.4337902 12.4905 191.608
6.57054 12.4969 191.70599
6.7065701 12.5017 191.78
6.8406901 12.5028 191.797
6.9771399 12.508 191.877
7.1143899 12.5145 191.976
7.2514701 12.5204 192.067
7.3884501 12.526 192.15199
7.5272198 12.5343 192.28
7.6648502 12.5405 192.375
7.80761 12.5547 192.593
7.9461002 12.5617 192.7
8.08428 12.5679 192.79601
8.2234802 12.5756 192.91299
8.3598499 12.5787 192.961
8.4999599 12.5872 193.092
8.63908 12.5941 193.19701
8.7793102 12.6023 193.32401
8.9201698 12.6112 193.46001
9.0573101 12.6146 193.51199
9.1963797 12.6206 193.604
9.3374796 12.6292 193.735
9.4787703 12.6377 193.867
9.6211395 12.6475 194.01601
9.7589502 12.651 194.071
9.8977804 12.6558 194.144
10.0378 12.6619 194.23801
10.1784 12.6686 194.341
10.3206 12.6772 194.472
10.4603 12.6823 194.55099
10.603 12.6911 194.685
10.7454 12.6991 194.808
10.8884 12.7078 194.94099
11.0315 12.7163 195.07201
11.1768 12.7271 195.23801
11.3191 12.7343 195.34801
11.4626 12.7427 195.47701
11.6074 12.7522 195.623
11.7536 12.7631 195.78999
11.8983 12.7721 195.929
12.0468 12.785 196.125
12.1988 12.8012 196.375
12.3491 12.8153 196.591
12.5014 12.8312 196.83501
12.8081 12.8639 197.336
12.9631 12.8815 197.606
13.2606 12.9032 197.94
13.4082 12.9127 198.08501
13.5563 12.9224 198.233
13.7056 12.933 198.396
13.8563 12.9448 198.578
14.0007 12.9505 198.664
14.1426 12.9538 198.716
14.2851 12.9576 198.774
14.4256 12.9595 198.802
14.5681 12.9631 198.85899
14.7111 12.9672 198.92
14.8556 12.9724 199.00101
14.9987 12.9764 199.062
15.1454 12.9833 199.168
15.292 12.9901 199.27299
15.4366 12.995 199.347
15.5801 12.999 199.408
15.7255 13.0044 199.491
15.8708 13.0097 199.573
16.015699 13.0145 199.647
16.165199 13.023 199.77699
16.3102 13.0277 199.849
16.4562 13.0332 199.933
16.6029 13.0391 200.024
16.753099 13.0476 200.155
16.9067 13.0586 200.323
17.056999 13.0669 200.451
17.2085 13.076 200.591
17.364799 13.0886 200.783
17.5161 13.0972 200.91499
17.670799 13.1082 201.084
17.83 13.1223 201.30099
17.994801 13.1404 201.577
18.163601 13.161 201.894
18.329901 13.1795 202.177
18.503201 13.2027 202.534
18.681299 13.229 202.937
18.862 13.2567 203.36301
19.048 13.2877 203.838
1.64254 12.7069 192.866
1.77487 12.693 192.65601
2.0409 12.6793 192.44901
2.1742401 12.6756 192.39301
2.4398201 12.6637 192.21201
2.57252 12.6583 192.129
2.8366699 12.6434 191.903
2.9688799 12.6375 191.813
3.2334099 12.6276 191.66299
3.3659999 12.6244 191.61501
3.4978499 12.6189 191.53101
3.76245 12.6119 191.425
3.8954501 12.6111 191.41299
4.0275302 12.6074 191.35699
4.1616702 12.6102 191.39999
4.29461 12.6093 191.386
4.4273701 12.608 191.366
4.5603099 12.6072 191.354
4.6936998 12.6077 191.36099
4.8264799 12.6066 191.34399
4.95964 12.6064 191.342
5.0934901 12.608 191.367
5.2284698 12.6123 191.431
5.36273 12.6146 191.467
5.4970798 12.6171 191.504
5.6299901 12.6161 191.49001
5.7643099 12.6184 191.52299
5.8983498 12.6199 191.547
6.0318699 12.6202 191.552
6.1679902 12.6259 191.638
6.3024402 12.628 191.67
6.4373398 12.6309 191.713
6.5742698 12.6376 191.815
6.7093 12.6404 191.85699
6.9819598 12.6504 192.00999
7.1205702 12.6592 192.14301
7.2583499 12.6662 192.25
7.3961201 12.673 192.35201
7.5352502 12.6817 192.485
7.6758699 12.6927 192.65199
7.8161602 12.7027 192.804
7.9531598 12.7072 192.871
8.0946598 12.7185 193.04401
8.2342501 12.7266 193.166
8.3704796 12.7293 193.20599
8.5112696 12.7387 193.349
8.7926903 12.7564 193.618
8.9307299 12.761 193.689
9.07407 12.773 193.871
9.2140503 12.78 193.976
9.3561897 12.7897 194.123
9.49582 12.7957 194.215
9.9089203 12.8054 194.362
10.0495 12.8121 194.464
10.1887 12.8169 194.537
10.3298 12.824 194.645
10.4721 12.8323 194.77
10.615 12.8412 194.905
10.7571 12.8489 195.022
10.8999 12.8571 195.14799
11.0445 12.8673 195.302
11.189 12.8772 195.451
11.3329 12.886 195.586
11.4762 12.8941 195.70799
11.6208 12.9034 195.849
11.7696 12.917 196.05701
11.9161 12.9279 196.222
12.0668 12.943 196.451
12.2186 12.959 196.69299
12.3705 12.9747 196.93201
12.5224 12.99 197.164
12.8252 13.0188 197.601
13.1256 13.0439 197.98199
13.2723 13.0526 198.11501
13.4173 13.0595 198.21899
13.563 13.0669 198.33099
13.7143 13.0796 198.524
13.8604 13.087 198.636
14.0031 13.0912 198.7
14.1457 13.095 198.758
14.2864 13.0973 198.79201
14.4259 13.0983 198.80701
14.5693 13.1028 198.875
14.7107 13.1053 198.91499
14.8554 13.1108 198.998
14.9983 13.1147 199.05701
15.1446 13.1213 199.158
15.2918 13.1287 199.27
15.4368 13.1341 199.35001
15.5807 13.1384 199.41701
15.7252 13.1431 199.48801
15.8706 13.1485 199.57001
16.0156 13.1535 199.646
16.163799 13.161 199.75999
16.3083 13.1654 199.827
16.4552 13.1717 199.922
16.6035 13.1789 200.03101
16.752501 13.1866 200.147
16.905199 13.197 200.306
17.057301 13.2068 200.45399
17.2099 13.2168 200.606
17.364901 13.2285 200.784
17.513901 13.2355 200.89
17.6686 13.2466 201.05901
17.8293 13.262 201.293
17.993401 13.2797 201.561
18.162399 13.3007 201.88
18.331499 13.3215 202.196
18.504601 13.3448 202.549
18.6807 13.3699 202.92999
18.8636 13.3995 203.379
1.90897 12.8271 192.65401
2.04199 12.8202 192.55099
2.1754701 12.8169 192.50101
2.3085999 12.812 192.42799
2.57427 12.8008 192.25999
2.7066801 12.7941 192.158
2.97051 12.7781 191.918
3.10271 12.7723 191.83099
3.3680799 12.7658 191.73399
3.5002999 12.7612 191.66499
3.6322401 12.756 191.586
4.0293698 12.7465 191.444
4.1628098 12.747 191.452
4.2963099 12.7477 191.46201
4.4297199 12.748 191.467
4.5627599 12.7473 191.457
4.6964898 12.7486 191.47501
4.8296599 12.7482 191.47
4.96245 12.7469 191.451
5.0960598 12.7478 191.463
5.23031 12.7501 191.498
5.3645501 12.7523 191.532
5.5001402 12.7575 191.61
5.6335301 12.7575 191.61
5.7676001 12.7591 191.633
5.9018102 12.7608 191.659
6.0355201 12.7614 191.668
6.1716099 12.7669 191.75101
6.3071098 12.771 191.812
6.5797 12.7817 191.97301
6.7154598 12.7858 192.034
6.8534398 12.7938 192.15401
6.9907498 12.8002 192.25101
7.1286402 12.8075 192.36099
7.2652102 12.8122 192.431
7.4039202 12.8204 192.55499
7.5459499 12.834 192.759
7.68431 12.841 192.86301
7.8242202 12.8503 193.00301
7.9653001 12.8611 193.166
8.1066103 12.872 193.32899
8.2459803 12.8794 193.44099
8.3846302 12.8856 193.533
8.5262604 12.896 193.69
8.81036 12.9172 194.007
8.9485598 12.9217 194.076
9.0883303 12.9283 194.175
9.2288704 12.9358 194.28799
9.3691998 12.9429 194.39301
9.5094995 12.9496 194.495
9.6496801 12.9561 194.592
9.7852201 12.9562 194.593
9.9220304 12.9579 194.619
10.1994 12.966 194.741
10.3402 12.9726 194.841
10.4841 12.9828 194.994
10.627 12.9915 195.125
10.7694 12.9995 195.244
10.913 13.0087 195.382
11.0587 13.0201 195.55299
11.204 13.0308 195.714
11.3475 13.0391 195.839
11.491 13.0471 195.96001
11.6384 13.0596 196.146
11.784 13.0695 196.29601
11.9359 13.0863 196.548
12.0867 13.1015 196.776
12.3917 13.1343 197.269
12.5434 13.1494 197.496
12.6901 13.1589 197.638
12.8386 13.1701 197.80701
12.9896 13.1837 198.00999
13.2809 13.1992 198.243
13.4261 13.2062 198.349
13.5703 13.2122 198.438
13.7182 13.2216 198.58
13.8621 13.2269 198.66
14.0052 13.2315 198.728
14.1481 13.2357 198.79201
14.2889 13.238 198.826
14.4284 13.239 198.841
14.5708 13.2426 198.895
14.7104 13.2436 198.91
14.8551 13.2492 198.994
14.9979 13.2529 199.05
15.1438 13.2594 199.14799
15.292 13.2677 199.272
15.4366 13.2728 199.349
15.5801 13.2768 199.409
15.7238 13.2809 199.47
15.869 13.2862 199.55
16.0138 13.2911 199.623
16.1625 13.2991 199.744
16.306801 13.3034 199.808
16.4541 13.31 199.907
16.6028 13.3177 200.02299
16.7514 13.3251 200.134
16.903999 13.3355 200.291
17.054899 13.3445 200.42599
17.208 13.3551 200.584
17.3629 13.3668 200.761
17.512699 13.3745 200.87601
17.6686 13.3867 201.05901
17.8295 13.4024 201.295
17.992201 13.4192 201.548
18.1614 13.4406 201.869
18.330799 13.4618 202.187
18.501699 13.4837 202.517
18.679199 13.5102 202.914
18.8629 13.5406 203.37199
19.0541 13.576 203.903
19.2644 13.6244 204.629
1.91141 12.9778 192.89999
2.44523 12.9602 192.638
2.70823 12.9353 192.26801
2.84025 12.927 192.145
3.1047499 12.9144 191.957
3.23792 12.9125 191.92999
3.6349699 12.8991 191.731
3.7669499 12.894 191.65401
3.90014 12.8933 191.64301
4.0324702 12.8898 191.592
4.1658802 12.8899 191.593
4.2995701 12.8908 191.60699
4.4331198 12.8913 191.614
4.5654998 12.8884 191.57201
4.6998901 12.8912 191.614
4.8340702 12.8934 191.645
4.9661198 12.8898 191.592
5.09904 12.8887 191.575
5.2338099 12.8921 191.627
5.3696499 12.898 191.714
5.50386 12.8997 191.74001
5.6381502 12.9016 191.767
5.7720299 12.9024 191.78
5.9077201 12.9072 191.851
6.0423002 12.9094 191.883
6.1786799 12.9152 191.97
6.3137498 12.9182 192.01401
6.4500899 12.9235 192.093
6.5873499 12.9304 192.196
6.7244601 12.9368 192.291
6.86064 12.9412 192.356
6.9973602 12.9464 192.433
7.1349602 12.953 192.53101
7.41223 12.9691 192.771
7.5553098 12.9844 192.998
7.6958098 12.9947 193.15199
7.9784598 13.0171 193.485
8.1195698 13.0274 193.638
8.2599497 13.0362 193.769
8.3985701 13.042 193.855
8.5384197 13.0495 193.966
8.6804399 13.06 194.12199
8.9592104 13.0724 194.30701
9.0992098 13.0792 194.408
9.2397604 13.0866 194.517
9.5207901 13.1006 194.726
9.6604996 13.1063 194.81
9.7971697 13.1077 194.83099
9.9317198 13.1063 194.80901
10.0702 13.11 194.866
10.2111 13.1168 194.966
10.4961 13.1337 195.217
10.6384 13.1416 195.33501
10.7827 13.1518 195.48599
10.9265 13.1611 195.62399
11.0699 13.1696 195.75101
11.2177 13.1831 195.952
11.3627 13.1931 196.101
11.5079 13.2031 196.248
11.6572 13.2174 196.46201
11.8055 13.2304 196.655
11.9562 13.2457 196.882
12.1088 13.2627 197.134
12.2613 13.2793 197.381
12.4147 13.2963 197.63499
12.7036 13.3108 197.85001
12.852 13.3218 198.013
12.9994 13.3316 198.159
13.1447 13.339 198.27
13.2888 13.3451 198.36
13.433 13.3513 198.451
13.7195 13.3612 198.599
13.8628 13.366 198.67101
14.0059 13.3706 198.739
14.1483 13.3744 198.795
14.2892 13.3768 198.83
14.4288 13.3778 198.84599
14.5708 13.3812 198.896
14.7104 13.3822 198.911
14.8554 13.388 198.998
14.9982 13.3919 199.056
15.1439 13.3982 199.149
15.291 13.4056 199.259
15.435 13.4102 199.327
15.5773 13.4133 199.373
15.7218 13.4181 199.44501
15.8686 13.4248 199.545
16.0131 13.4295 199.61501
16.1625 13.4382 199.744
16.3069 13.4426 199.80901
16.453699 13.4489 199.90199
16.6017 13.4561 200.009
16.7505 13.4637 200.123
16.902599 13.474 200.27499
17.0532 13.4828 200.40601
17.2059 13.4932 200.56
17.361099 13.5053 200.741
17.5116 13.5136 200.864
17.6681 13.5263 201.05299
17.8304 13.5432 201.30499
17.9951 13.5618 201.58099
18.1612 13.5811 201.867
18.3298 13.6019 202.17599
18.499399 13.6231 202.492
18.6763 13.6494 202.883
18.8629 13.6823 203.37199
19.0546 13.7184 203.908
19.2609 13.7644 204.592
2.9774899 13.0761 192.369
3.6420901 13.0582 192.106
3.77226 13.0459 191.925
3.90447 13.0412 191.856
4.03722 13.0386 191.81799
4.1719699 13.0424 191.873
4.3043299 13.0387 191.819
4.43963 13.0439 191.896
4.5729399 13.0431 191.884
4.70646 13.0429 191.881
4.8399401 13.0427 191.87801
4.9723301 13.0395 191.832
5.1058302 13.0394 191.83
5.2432299 13.049 191.97099
5.3778701 13.0514 192.007
5.5117602 13.052 192.015
5.6443901 13.0496 191.979
5.7806602 13.0555 192.067
6.0516 13.0631 192.17799
6.18502 13.0623 192.16701
6.3236198 13.0723 192.314
6.4595499 13.0765 192.375
6.5974998 13.0844 192.492
6.7328 13.087 192.53
7.2835002 13.1132 192.916
7.4275398 13.1304 193.16901
7.7111402 13.1554 193.537
7.8506999 13.1635 193.65601
8.1289301 13.1775 193.86099
8.2681503 13.1843 193.961
8.4066801 13.1898 194.04201
8.54883 13.2007 194.203
8.68962 13.2092 194.328
8.82899 13.2153 194.418
8.9680901 13.2208 194.49899
9.1093597 13.2294 194.625
9.2487497 13.2349 194.707
9.3892298 13.2419 194.80901
9.5300303 13.2491 194.91499
9.6672802 13.2513 194.946
9.9418402 13.2554 195.008
10.0819 13.2611 195.091
10.223 13.268 195.19299
10.3663 13.2774 195.33099
10.5084 13.2852 195.44501
10.6499 13.292 195.54601
10.7949 13.3029 195.70599
10.9394 13.3129 195.854
11.0859 13.3252 196.035
11.3804 13.3504 196.40601
11.6767 13.3767 196.79201
11.825 13.3895 196.98
11.9774 13.4065 197.231
12.1286 13.4219 197.457
12.4279 13.4483 197.845
12.5719 13.455 197.94299
12.7131 13.4586 197.996
12.8606 13.4687 198.145
13.0061 13.4766 198.261
13.1512 13.4838 198.367
13.2941 13.4887 198.439
13.5805 13.4987 198.58701
13.7207 13.5007 198.616
13.8633 13.5048 198.677
14.006 13.5092 198.741
14.1481 13.5127 198.79201
14.2893 13.5154 198.832
14.4289 13.5164 198.84801
14.5706 13.5195 198.892
14.7109 13.5212 198.918
14.8553 13.5266 198.998
14.9994 13.5317 199.07201
15.1445 13.5374 199.15601
15.2905 13.5439 199.252
15.4329 13.5472 199.3
15.576 13.551 199.356
15.721 13.5563 199.435
15.8665 13.562 199.51801
16.0119 13.5676 199.60001
16.1618 13.5767 199.735
16.3057 13.5808 199.79401
16.4527 13.5873 199.89
16.5998 13.5938 199.98599
16.748199 13.6013 200.09599
16.900299 13.6116 200.24699
17.051901 13.6214 200.39101
17.205601 13.6326 200.55701
17.3605 13.6446 200.73399
17.6681 13.6664 201.05299
17.8276 13.6813 201.27299
17.993999 13.7014 201.569
18.1632 13.7231 201.88901
18.3321 13.7445 202.202
18.500099 13.7647 202.5
18.6747 13.7895 202.86501
18.8585 13.8207 203.32401
19.0525 13.8589 203.886
19.2593 13.9058 204.575
3.7793 13.2041 192.283
3.9128201 13.203 192.26601
4.1759901 13.1887 192.058
4.3088498 13.1861 192.021
4.4452 13.1941 192.136
4.5787401 13.1935 192.127
4.7124 13.1932 192.12399
4.84619 13.1933 192.125
4.9794402 13.192 192.106
5.1141901 13.1946 192.144
5.2505999 13.2013 192.241
5.3850198 13.2027 192.26199
5.51899 13.203 192.267
5.6530299 13.2035 192.27299
5.789 13.2083 192.34399
5.9261498 13.2155 192.44901
6.19628 13.2202 192.517
6.3336201 13.2271 192.618
6.4704499 13.2327 192.69901
6.6043801 13.2323 192.69299
6.7385602 13.2324 192.694
6.87573 13.2382 192.77901
7.0138798 13.2457 192.888
7.1591401 13.266 193.18401
7.3027802 13.2826 193.42599
7.4453101 13.2967 193.631
7.5855598 13.3063 193.77
7.7251801 13.3144 193.88901
7.8627901 13.3189 193.95399
8.0003099 13.3231 194.015
8.1388397 13.3287 194.097
8.2785101 13.3361 194.20399
8.4176502 13.3423 194.295
8.55966 13.3528 194.44901
8.8380699 13.3645 194.618
8.9774199 13.3702 194.701
9.1194897 13.3798 194.841
9.2572498 13.3829 194.886
9.39816 13.3903 194.994
9.5376101 13.3955 195.07001
9.6743097 13.3968 195.088
9.8139601 13.402 195.16499
9.9524498 13.4056 195.216
10.0933 13.4121 195.311
10.2361 13.4211 195.44299
10.3789 13.4298 195.56799
10.5204 13.4367 195.67
10.6644 13.4465 195.812
10.8085 13.4562 195.953
11.1003 13.4791 196.28799
11.3993 13.5097 196.73199
11.6941 13.5339 197.08501
11.8432 13.5475 197.283
11.9955 13.5643 197.52901
12.1465 13.5794 197.748
12.2943 13.5907 197.912
12.4387 13.5979 198.017
12.5796 13.6012 198.065
12.7243 13.6085 198.172
12.868 13.6146 198.25999
13.0113 13.62 198.34
13.1553 13.6262 198.42999
13.4399 13.6346 198.552
13.581 13.6376 198.595
13.7195 13.6378 198.599
13.8624 13.6424 198.664
14.0051 13.6466 198.72701
14.1476 13.6507 198.786
14.2894 13.6539 198.83299
14.4293 13.6554 198.854
14.57 13.6574 198.884
14.711 13.6598 198.91901
14.8558 13.6657 199.004
15.0004 13.6711 199.084
15.1448 13.6765 199.161
15.2898 13.6821 199.244
15.4322 13.6854 199.29201
15.576 13.6898 199.355
15.7201 13.6945 199.424
15.8651 13.6998 199.50101
16.0109 13.7057 199.58701
16.1607 13.7149 199.722
16.304001 13.7185 199.774
16.451 13.7252 199.87
16.597601 13.7313 199.96001
16.7458 13.7387 200.067
16.897699 13.749 200.217
17.0504 13.7597 200.373
17.203199 13.7704 200.52901
17.358601 13.7829 200.711
17.508801 13.7911 200.83099
17.6693 13.8074 201.067
17.8276 13.8215 201.274
17.9937 13.8415 201.565
18.1647 13.865 201.90601
18.3332 13.8861 202.214
18.5012 13.9066 202.51199
18.6768 13.9324 202.88901
18.860001 13.9635 203.341
19.053699 14.0018 203.899
19.256599 14.0463 204.54601
4.0594201 13.379 192.873
4.1875701 13.3594 192.591
4.3196402 13.3532 192.502
4.4524398 13.3496 192.44901
4.586 13.3484 192.43201
4.7210002 13.3513 192.474
4.85427 13.3493 192.446
4.98841 13.3498 192.452
5.1235399 13.3528 192.496
5.25844 13.3551 192.528
5.39291 13.3562 192.54401
5.52877 13.3606 192.608
5.6630998 13.3612 192.616
5.8003101 13.3683 192.71899
5.9356298 13.371 192.757
6.0711098 13.3738 192.798
6.2055898 13.3744 192.806
6.4777999 13.3821 192.918
6.6139102 13.3858 192.97099
6.7550001 13.3992 193.164
6.8972998 13.4144 193.384
7.04041 13.4306 193.617
7.1815801 13.4426 193.789
7.3193598 13.4478 193.866
7.4581699 13.4548 193.966
7.7341599 13.4651 194.11501
7.8715501 13.469 194.17
8.0090199 13.4728 194.226
8.1482296 13.4795 194.321
8.2895699 13.4893 194.463
8.4283705 13.4948 194.543
8.5699797 13.5045 194.683
8.7094097 13.5106 194.77
8.8480101 13.5152 194.83701
9.12815 13.5283 195.026
9.2665596 13.5322 195.082
9.4068699 13.5387 195.175
9.5457897 13.543 195.237
9.68361 13.5457 195.276
9.9658499 13.5598 195.479
10.1085 13.5686 195.60699
10.2502 13.5759 195.711
10.3919 13.5831 195.815
10.5351 13.5919 195.942
10.6781 13.6003 196.064
10.8227 13.6104 196.21001
10.9707 13.6247 196.41499
11.1196 13.6396 196.63
11.2669 13.6523 196.813
11.416 13.6667 197.021
11.5652 13.6809 197.22501
11.7136 13.6939 197.41299
11.8633 13.7081 197.618
12.0125 13.7213 197.808
12.1586 13.7309 197.946
12.3066 13.7423 198.11
12.4488 13.747 198.17799
12.5904 13.7509 198.235
12.7337 13.7567 198.31799
12.8738 13.7588 198.349
13.0148 13.7619 198.394
13.3005 13.7717 198.535
13.4409 13.774 198.56799
13.5807 13.7756 198.591
13.7181 13.7747 198.578
13.8611 13.7795 198.646
