# .PCD v0.7 - Point Cloud Data file format
VERSION 0.7
FIELDS x y z
SIZE 4 4 4
TYPE F F F
COUNT 1 1 1
WIDTH 1690
HEIGHT 1
VIEWPOINT 0 0 0 1 0 0 0
POINTS 1690
DATA ascii
-2.12239 -1.40213 193.37
-1.98746 -1.4019099 193.34
-1.85271 -1.40179 193.323
-1.71814 -1.4018101 193.325
-1.58363 -1.40187 193.334
-1.44936 -1.40218 193.377
-1.31551 -1.403 193.49001
-1.18128 -1.40356 193.567
-1.0468301 -1.40397 193.623
-0.91241097 -1.40453 193.701
-0.77783501 -1.40502 193.76801
-0.64319402 -1.40557 193.84399
-0.50849301 -1.40624 193.937
-0.37359601 -1.40666 193.995
-0.238625 -1.40713 194.05901
-0.103578 -1.40777 194.14799
0.031589098 -1.4082299 194.21201
0.166862 -1.4088399 194.295
0.302138 -1.40892 194.306
1.1141599 -1.4094599 194.38
1.24955 -1.4095401 194.392
1.38515 -1.4098099 194.42999
1.5202399 -1.40957 194.397
1.65589 -1.40985 194.43401
1.7909499 -1.40961 194.40199
1.92593 -1.40935 194.366
2.0609601 -1.40917 194.34
2.1958301 -1.40889 194.302
2.32991 -1.40818 194.20399
2.4635 -1.4072599 194.078
2.5967901 -1.40627 193.942
2.7304299 -1.40557 193.845
2.8647201 -1.40525 193.8
2.99787 -1.40442 193.686
3.13183 -1.40403 193.632
3.2653501 -1.4034801 193.556
3.39768 -1.40248 193.41901
3.5299101 -1.40152 193.286
3.6631601 -1.4010201 193.217
3.7967401 -1.4006799 193.17
4.0622501 -1.3995 193.007
4.1950498 -1.39898 192.935
4.3273301 -1.39832 192.84399
4.4601798 -1.39788 192.784
4.5932298 -1.39753 192.735
4.7261901 -1.3971699 192.686
4.8591599 -1.39684 192.64
4.9919701 -1.39647 192.59
5.1239901 -1.39591 192.51199
5.2578001 -1.39586 192.505
5.3912802 -1.39572 192.48599
5.52389 -1.39537 192.437
5.6565099 -1.39504 192.392
5.7874999 -1.39433 192.29401
5.9193101 -1.39384 192.22701
6.0520101 -1.39359 192.192
6.18398 -1.39318 192.13499
6.31811 -1.39326 192.146
6.4503899 -1.39294 192.10201
6.7165999 -1.39268 192.06599
6.8475299 -1.39211 191.98801
6.98175 -1.39223 192.004
7.1147199 -1.39209 191.985
7.24787 -1.3919899 191.972
7.3810201 -1.3918999 191.959
7.5128102 -1.39156 191.912
7.6443 -1.39118 191.85899
7.7785902 -1.3913 191.877
7.9121599 -1.3913 191.877
8.0443096 -1.39106 191.843
8.17805 -1.39109 191.847
8.3134098 -1.39139 191.88901
8.4466896 -1.39134 191.882
8.5806999 -1.39141 191.892
8.7147198 -1.39148 191.901
8.8481703 -1.3914599 191.89799
8.9808502 -1.39132 191.879
9.1165104 -1.3916399 191.923
9.2503004 -1.39166 191.92599
9.3872499 -1.3921601 191.995
9.52176 -1.39228 192.01199
9.6577702 -1.39262 192.05901
9.7937899 -1.3929501 192.104
9.9317102 -1.39354 192.185
10.0656 -1.39355 192.187
10.2042 -1.39421 192.278
10.3425 -1.39481 192.36
10.4804 -1.39534 192.433
10.617 -1.39569 192.481
10.7529 -1.3959301 192.515
10.8892 -1.39623 192.556
11.0258 -1.3965501 192.601
11.1612 -1.3967201 192.62399
11.2967 -1.39689 192.647
11.4353 -1.3974299 192.722
11.5741 -1.398 192.8
11.7119 -1.39842 192.85899
11.8463 -1.39845 192.862
11.9787 -1.3982199 192.83099
12.1126 -1.39818 192.825
12.2454 -1.39802 192.80299
12.378 -1.39784 192.778
12.5147 -1.39811 192.81599
12.6495 -1.39818 192.826
12.7858 -1.3983999 192.856
12.9223 -1.3986501 192.89
13.0606 -1.39907 192.94901
13.1994 -1.39955 193.015
13.3421 -1.40042 193.13499
13.4827 -1.40107 193.224
13.6259 -1.40196 193.347
13.7812 -1.40407 193.638
13.9455 -1.40705 194.048
14.0953 -1.40851 194.25
14.2387 -1.40933 194.36301
14.3817 -1.41008 194.467
14.5257 -1.41092 194.582
14.6724 -1.4119999 194.731
14.8142 -1.41259 194.813
14.9565 -1.41322 194.89999
15.101 -1.41405 195.01401
15.2426 -1.4146 195.089
15.3834 -1.41505 195.15199
15.5261 -1.4156801 195.239
15.6684 -1.41625 195.317
15.8105 -1.4168 195.394
15.9522 -1.4173 195.463
16.091801 -1.4176199 195.506
16.230499 -1.41784 195.537
16.3664 -1.41782 195.534
16.502899 -1.41785 195.539
16.6394 -1.41789 195.543
16.7726 -1.41764 195.509
16.9083 -1.41761 195.505
17.2309 -1.42177 196.07899
17.3673 -1.42176 196.077
17.497601 -1.42125 196.007
17.6215 -1.42024 195.868
17.7484 -1.41949 195.76401
17.877001 -1.41888 195.67999
18.0072 -1.4184 195.614
18.1413 -1.41824 195.592
18.273701 -1.41795 195.55099
18.403099 -1.41743 195.48
18.5376 -1.41731 195.464
18.6738 -1.41732 195.464
18.811199 -1.41742 195.479
18.950899 -1.41769 195.515
19.0933 -1.41816 195.58099
19.2325 -1.41838 195.61099
19.372801 -1.41868 195.653
19.5109 -1.41882 195.672
19.6401 -1.4183199 195.60201
19.7675 -1.41768 195.515
19.895901 -1.41714 195.439
20.024401 -1.41661 195.366
20.1665 -1.41703 195.425
20.302601 -1.41704 195.42599
20.446301 -1.41757 195.49899
20.595301 -1.41846 195.621
21.239599 -1.44374 199.108
21.3967 -1.44499 199.28
21.540199 -1.44531 199.325
21.691401 -1.44613 199.438
21.839701 -1.4467601 199.52499
21.995001 -1.44784 199.674
22.145201 -1.44857 199.77499
22.301001 -1.4496599 199.925
22.453699 -1.4505399 200.04601
22.605801 -1.45136 200.159
22.937901 -1.4547499 200.627
23.1092 -1.45674 200.90199
23.2906 -1.45935 201.261
23.4643 -1.46144 201.549
23.6478 -1.46411 201.91701
23.845301 -1.46761 202.401
24.0345 -1.47057 202.80901
-2.2570901 -1.26749 193.377
-2.1220901 -1.26727 193.343
-1.98718 -1.2670701 193.312
-1.85258 -1.26705 193.311
-1.71788 -1.26696 193.29601
-1.58346 -1.2670701 193.313
-1.4492199 -1.26736 193.358
-1.31524 -1.26797 193.45
-1.18112 -1.2685601 193.53999
-1.04669 -1.26893 193.59599
-0.91234303 -1.26952 193.687
-0.77772403 -1.26987 193.741
-0.64309299 -1.27035 193.813
-0.50833398 -1.2707601 193.87601
-0.37348101 -1.27115 193.935
-0.238573 -1.27168 194.017
-0.103536 -1.27202 194.069
0.0315727 -1.2723 194.11099
0.16681001 -1.27311 194.235
0.30204701 -1.2732 194.248
0.437291 -1.27325 194.256
0.57251602 -1.27324 194.254
0.70782697 -1.27338 194.276
0.84294897 -1.27319 194.248
0.978562 -1.2737 194.325
1.11374 -1.27358 194.30701
1.24915 -1.27373 194.32899
1.3847899 -1.27406 194.379
1.5197999 -1.2738 194.34
1.65502 -1.2737499 194.332
1.79022 -1.27369 194.32201
1.92493 -1.2733099 194.265
2.0598199 -1.2731 194.233
2.1949699 -1.27306 194.22701
2.3285401 -1.2721601 194.09
2.4624 -1.27151 193.991
2.5959101 -1.2707601 193.87601
2.7296901 -1.27021 193.79201
2.86344 -1.2697001 193.714
2.99684 -1.26908 193.619
3.1305201 -1.26863 193.55099
3.2642601 -1.26824 193.492
3.3966601 -1.26738 193.36099
3.52912 -1.26661 193.243
3.66207 -1.26607 193.16
3.7954099 -1.26569 193.103
3.92799 -1.26509 193.01199
4.06107 -1.26469 192.951
4.19417 -1.26433 192.894
4.45926 -1.26334 192.744
4.5919399 -1.26293 192.681
4.72509 -1.26266 192.64101
4.8575501 -1.2622401 192.576
4.9904399 -1.26194 192.53
5.1220999 -1.26136 192.442
5.2556701 -1.26126 192.427
5.3892102 -1.26116 192.412
5.5214 -1.2607599 192.351
5.7851 -1.2598701 192.214
5.9174099 -1.25955 192.16499
6.0495501 -1.25921 192.11301
6.18155 -1.25885 192.05901
6.3152399 -1.25885 192.05901
6.4474101 -1.25855 192.013
6.5801101 -1.25836 191.985
6.7133899 -1.2582999 191.97501
6.8446598 -1.2578599 191.908
6.97822 -1.2578501 191.907
7.1118202 -1.2578501 191.907
7.2449198 -1.2577699 191.894
7.3775201 -1.2575999 191.868
7.5095 -1.2573299 191.828
7.6413898 -1.2570601 191.786
7.7753201 -1.25713 191.79601
7.90979 -1.25728 191.82001
8.0423298 -1.25712 191.79601
8.17558 -1.25708 191.789
8.3103905 -1.25728 191.819
8.4444103 -1.25735 191.83
8.5781803 -1.25739 191.836
8.7131701 -1.2575901 191.867
8.8464499 -1.25755 191.86099
8.9795303 -1.25748 191.851
9.1167002 -1.25798 191.927
9.2500296 -1.2579499 191.92101
9.3865805 -1.25834 191.981
9.5201998 -1.25834 191.981
9.6563501 -1.25866 192.03
9.7921896 -1.25894 192.073
9.93116 -1.2596101 192.174
10.065 -1.2596101 192.17599
10.2035 -1.2602 192.265
10.3414 -1.26069 192.34
10.479 -1.26114 192.408
10.6162 -1.26152 192.466
10.752 -1.26173 192.49899
10.8872 -1.26187 192.52
11.0242 -1.26221 192.57201
11.161 -1.26253 192.62
11.2971 -1.26275 192.65401
11.4344 -1.2631 192.70799
11.5745 -1.26375 192.80701
11.7124 -1.26415 192.867
11.8473 -1.26421 192.877
11.9806 -1.26411 192.86099
12.1146 -1.2640899 192.858
12.2475 -1.26394 192.836
12.381 -1.26387 192.82401
12.5176 -1.26411 192.862
12.652 -1.26412 192.86301
12.7881 -1.2643 192.89
12.9249 -1.26455 192.929
13.063 -1.26492 192.985
13.2007 -1.26524 193.033
13.3467 -1.26634 193.201
13.487 -1.26688 193.285
13.6324 -1.26789 193.438
13.7961 -1.27057 193.847
13.9554 -1.27279 194.186
14.0994 -1.27359 194.30701
14.2408 -1.27414 194.392
14.3837 -1.27481 194.493
14.5283 -1.27562 194.617
14.6749 -1.27658 194.76401
14.8168 -1.27713 194.84801
14.9584 -1.27764 194.925
15.1022 -1.27832 195.03
15.2443 -1.27885 195.11
15.3873 -1.27944 195.201
15.5284 -1.27988 195.267
15.6705 -1.28038 195.34399
15.8137 -1.28096 195.433
15.9548 -1.28137 195.495
16.0947 -1.28168 195.54201
16.233801 -1.2819099 195.577
16.374201 -1.28224 195.627
16.5149 -1.28259 195.681
16.6569 -1.28304 195.74899
16.796499 -1.28329 195.78799
16.9436 -1.28411 195.91299
17.0879 -1.28471 196.004
17.237 -1.28565 196.14799
17.373501 -1.28565 196.14799
17.503 -1.28513 196.06799
17.627899 -1.2842799 195.939
17.755301 -1.28363 195.839
18.0121 -1.2825 195.668
18.1432 -1.28214 195.612
18.2736 -1.28174 195.55099
18.402599 -1.28124 195.47501
18.5357 -1.2810301 195.44299
18.671301 -1.281 195.439
18.8095 -1.28114 195.46001
18.947901 -1.28131 195.485
19.0867 -1.28149 195.513
19.2283 -1.28186 195.569
19.3727 -1.2824 195.65199
19.5137 -1.28272 195.7
19.641199 -1.28214 195.61301
19.768 -1.28154 195.52
19.8964 -1.28104 195.444
20.0263 -1.28065 195.38499
20.1661 -1.28089 195.42101
20.3057 -1.28111 195.45599
20.4447 -1.2812999 195.48399
20.5956 -1.28222 195.62399
21.2265 -1.30424 198.985
21.3978 -1.30625 199.291
21.540001 -1.30646 199.323
21.692301 -1.3072799 199.44701
21.8402 -1.30782 199.52901
21.9963 -1.30884 199.686
22.1465 -1.3095 199.787
22.3048 -1.31063 199.959
22.4564 -1.31136 200.07001
22.6141 -1.31242 200.233
22.7775 -1.31381 200.444
22.951099 -1.31576 200.742
23.1208 -1.31747 201.002
23.297501 -1.31955 201.32001
23.474199 -1.32161 201.634
23.6563 -1.32394 201.99001
24.055401 -1.33047 202.985
-2.52705 -1.1331199 193.433
-2.3914199 -1.13266 193.354
-2.25647 -1.13249 193.32401
-2.12148 -1.13227 193.287
-1.9869699 -1.1323 193.29201
-1.8523901 -1.13229 193.28999
-1.71769 -1.1322 193.27499
-1.58336 -1.13235 193.30099
-1.44912 -1.13261 193.345
-1.31504 -1.13305 193.42101
-1.1809 -1.13354 193.50301
-1.0464799 -1.13386 193.558
-0.91221499 -1.13445 193.66
-0.77767599 -1.13486 193.729
-0.64300501 -1.1352 193.787
-0.50821197 -1.13545 193.83
-0.37336299 -1.13571 193.87399
-0.238492 -1.13616 193.951
-0.10349 -1.13635 193.98399
0.031562202 -1.1367199 194.04601
0.166738 -1.1373301 194.151
0.30194801 -1.13753 194.18401
0.437159 -1.1375999 194.198
0.57233101 -1.13756 194.19099
0.70759302 -1.1376899 194.21201
0.84255302 -1.13736 194.15601
0.97813499 -1.13785 194.24001
1.11338 -1.13787 194.244
1.24866 -1.13793 194.25301
1.38436 -1.13831 194.31799
1.51932 -1.13808 194.27901
1.65434 -1.13792 194.252
1.78935 -1.13778 194.228
1.9238501 -1.13736 194.15601
2.0585599 -1.13711 194.114
2.1933401 -1.13693 194.08299
2.3273799 -1.13641 193.993
2.4612701 -1.13587 193.90199
2.5950501 -1.13534 193.812
2.7284701 -1.13472 193.705
2.8621099 -1.13424 193.62399
2.9955201 -1.13372 193.534
3.12905 -1.13328 193.46001
3.26282 -1.13297 193.40601
3.39554 -1.1323299 193.297
3.52776 -1.13158 193.16901
3.6608601 -1.13115 193.09599
3.7939601 -1.13076 193.02901
3.9267399 -1.1303 192.95
4.05966 -1.12991 192.884
4.1925602 -1.12954 192.82001
4.3249898 -1.12906 192.74001
4.4580302 -1.12878 192.69099
4.5908399 -1.12845 192.63499
4.7237601 -1.12817 192.58701
4.85639 -1.12783 192.53
4.9886799 -1.12744 192.46201
5.1207299 -1.12701 192.39
5.2537599 -1.12682 192.35699
5.3871899 -1.12672 192.34
5.65205 -1.12614 192.24001
5.7831998 -1.12561 192.151
5.91505 -1.12525 192.089
6.04702 -1.12492 192.033
6.1786199 -1.12455 191.968
6.31251 -1.12459 191.976
6.4443302 -1.12427 191.922
6.57693 -1.1241 191.892
6.7097402 -1.12397 191.87
6.8421001 -1.12377 191.836
6.9748502 -1.1236399 191.814
7.1093202 -1.12379 191.839
7.37463 -1.12352 191.793
7.5066099 -1.1232899 191.754
7.6381602 -1.123 191.705
7.7714701 -1.12298 191.701
7.9071598 -1.1233 191.756
8.0403204 -1.12325 191.748
8.1740599 -1.1232899 191.754
8.3082104 -1.1233799 191.769
8.4428902 -1.12353 191.79601
8.5768404 -1.12359 191.806
8.7121696 -1.1238199 191.845
8.8451204 -1.12375 191.832
8.9790802 -1.1238 191.841
9.1170502 -1.1243401 191.93401
9.2499504 -1.1242599 191.91901
9.3856297 -1.12451 191.96201
9.5193501 -1.1245199 191.963
9.6542902 -1.12467 191.989
9.7912102 -1.1250401 192.054
9.9301004 -1.12563 192.15401
10.0645 -1.12571 192.166
10.2027 -1.1261899 192.25
10.34 -1.12657 192.314
10.4777 -1.1269799 192.384
10.6141 -1.1272399 192.429
10.7505 -1.12749 192.472
10.8857 -1.12762 192.494
11.0228 -1.1279401 192.548
11.1602 -1.12828 192.605
11.2966 -1.12851 192.645
11.4345 -1.12889 192.71001
11.5744 -1.12945 192.80499
11.7124 -1.12981 192.867
11.8482 -1.1299599 192.892
11.9831 -1.13001 192.901
12.1194 -1.1302 192.93401
12.2524 -1.13008 192.91299
12.3856 -1.12998 192.896
12.5216 -1.1301399 192.923
12.6552 -1.13007 192.911
12.7907 -1.13018 192.92999
12.9288 -1.13051 192.98599
13.0666 -1.13081 193.037
13.3504 -1.13208 193.255
13.4905 -1.13255 193.336
13.6456 -1.1342601 193.62601
13.8058 -1.13635 193.983
13.9613 -1.13802 194.26801
14.1023 -1.1384799 194.347
14.2423 -1.13886 194.412
14.3854 -1.13947 194.517
14.5319 -1.14034 194.66499
14.678 -1.14117 194.806
14.8193 -1.1416 194.881
14.9613 -1.14209 194.963
15.1038 -1.1426001 195.05099
15.2457 -1.14306 195.129
15.3911 -1.14377 195.25
15.5309 -1.14405 195.298
15.6727 -1.14448 195.371
15.8169 -1.14507 195.47301
15.957 -1.14536 195.521
16.0963 -1.1455899 195.56
16.2356 -1.14581 195.599
16.378201 -1.14626 195.67599
16.5201 -1.14665 195.743
16.665001 -1.1472501 195.84399
16.808001 -1.1477 195.92101
16.952499 -1.14826 196.01601
17.101101 -1.14907 196.155
17.246599 -1.14966 196.256
17.384001 -1.14972 196.265
17.510799 -1.14907 196.155
17.638 -1.14846 196.05099
17.7638 -1.14777 195.933
17.8901 -1.14713 195.82401
18.145201 -1.1460201 195.634
18.274099 -1.14556 195.556
18.4042 -1.14518 195.492
18.536301 -1.14494 195.45
18.6698 -1.14478 195.423
18.806499 -1.14482 195.42999
18.9452 -1.14498 195.457
19.084299 -1.14517 195.489
19.2272 -1.14557 195.558
19.3706 -1.146 195.631
19.510599 -1.14622 195.668
19.640499 -1.1458499 195.606
19.7684 -1.14538 195.52499
19.897699 -1.14498 195.457
20.0282 -1.14466 195.403
20.1649 -1.1447001 195.409
20.305799 -1.14498 195.45599
20.444799 -1.1451401 195.48399
20.5959 -1.14597 195.627
21.210501 -1.16477 198.83501
21.3965 -1.16737 199.278
21.538601 -1.16755 199.31
21.691799 -1.16833 199.442
21.8384 -1.16874 199.513
21.9949 -1.16968 199.673
22.1464 -1.1703399 199.786
22.305599 -1.1713901 199.966
22.459 -1.17213 200.092
22.623899 -1.17347 200.32001
22.790199 -1.17485 200.55499
22.964701 -1.17664 200.86099
23.1348 -1.17818 201.12399
23.312599 -1.18009 201.45
23.4942 -1.18217 201.806
23.6754 -1.1842099 202.153
23.876499 -1.18721 202.66499
24.0826 -1.19042 203.214
-2.3907199 -0.99769503 193.298
-2.25615 -0.99769199 193.297
-2.12116 -0.99749202 193.258
-1.98672 -0.99754101 193.26801
-1.8521301 -0.99751502 193.263
-1.7176 -0.99752003 193.26401
-1.5834301 -0.99776 193.31
-1.44903 -0.99787802 193.33299
-1.31495 -0.99826401 193.408
-1.18073 -0.99861503 193.476
-1.04625 -0.99881399 193.51401
-0.91206998 -0.99940401 193.629
-0.77757901 -0.99979401 193.70399
-0.64292598 -1.0001 193.763
-0.50809199 -1.0002 193.784
-0.37323299 -1.00032 193.806
-0.238414 -1.0007401 193.888
-0.103454 -1.00089 193.916
0.031553101 -1.0012701 193.991
0.16666 -1.0016299 194.061
0.30184701 -1.00194 194.119
0.43699601 -1.0019701 194.125
0.57212597 -1.00195 194.121
0.70735598 -1.00208 194.147
0.84227401 -1.0017999 194.092
0.977772 -1.00218 194.16701
1.11303 -1.00227 194.183
1.24816 -1.00222 194.175
1.38386 -1.0026 194.24899
1.51873 -1.00237 194.203
1.65362 -1.00219 194.168
1.78835 -1.00194 194.119
1.92308 -1.00173 194.07899
2.05757 -1.00142 194.02
2.19208 -1.00117 193.97099
2.4604199 -1.00047 193.83501
2.5941401 -0.99999899 193.744
2.7275 -0.99944299 193.636
2.86112 -0.99903202 193.55701
2.99436 -0.99852902 193.459
3.12801 -0.99820203 193.396
3.2619801 -0.99800003 193.35699
3.3943601 -0.99734598 193.23
3.5264699 -0.99666601 193.09801
3.65958 -0.99630499 193.028
3.7929001 -0.99602801 192.97501
3.92576 -0.99565399 192.90199
4.05831 -0.99522698 192.819
4.19102 -0.99486601 192.75
4.3236399 -0.994506 192.67999
4.4559999 -0.99410999 192.603
4.5893602 -0.99395603 192.573
4.8547101 -0.993388 192.463
4.9863601 -0.99292397 192.373
5.119 -0.99267602 192.325
5.2513199 -0.992378 192.267
5.3853202 -0.99240798 192.27299
5.51722 -0.99205601 192.205
5.6505599 -0.99197501 192.189
5.7818599 -0.991548 192.10699
5.9134998 -0.99119598 192.03799
6.0451398 -0.99085897 191.97301
6.1758199 -0.990385 191.881
6.3101201 -0.99049902 191.903
6.4418802 -0.99021602 191.849
6.5746498 -0.99009901 191.826
6.70719 -0.98995 191.797
6.8396902 -0.98980302 191.769
6.97224 -0.98966801 191.742
7.1065102 -0.989779 191.76401
7.2386999 -0.98959899 191.729
7.3720698 -0.989586 191.72701
7.50387 -0.98936498 191.68401
7.6357598 -0.98916399 191.645
7.7690101 -0.98914301 191.64101
7.9047298 -0.98943198 191.69701
8.0384398 -0.98946398 191.703
8.1729403 -0.989591 191.728
8.3071899 -0.98968399 191.745
8.4415503 -0.98978603 191.765
8.5755997 -0.989851 191.778
8.7106895 -0.99002999 191.813
8.8438997 -0.989995 191.806
8.9783897 -0.99010098 191.826
9.1161804 -0.99056202 191.916
9.2496901 -0.99055201 191.914
9.3847399 -0.99070501 191.94299
9.5188799 -0.99076003 191.95399
9.6533298 -0.99084401 191.97
9.7902098 -0.99117202 192.034
9.9285698 -0.99163902 192.12399
10.0633 -0.99173498 192.14301
10.2012 -0.99213898 192.22099
10.3396 -0.992576 192.306
10.4764 -0.992854 192.36
10.6123 -0.993038 192.395
10.7481 -0.99321002 192.429
10.8847 -0.99345899 192.47701
11.0218 -0.99373502 192.53
11.1585 -0.99396902 192.576
11.2959 -0.99426299 192.633
11.4346 -0.99466503 192.711
11.5746 -0.99516702 192.808
11.7118 -0.99541903 192.85699
11.8486 -0.99563301 192.89799
11.9849 -0.99579901 192.92999
12.2579 -0.99615997 193
12.3911 -0.996068 192.98199
12.5266 -0.996162 193.00101
12.6594 -0.99603599 192.976
12.7938 -0.996041 192.97701
12.9328 -0.99639499 193.04601
13.0699 -0.99660498 193.086
13.2111 -0.99712098 193.186
13.3518 -0.99757999 193.27499
13.4942 -0.99816298 193.388
13.8151 -1.00191 194.114
13.9641 -1.00291 194.30701
14.1069 -1.00344 194.41
14.246 -1.0037 194.46201
14.3878 -1.00415 194.548
14.5347 -1.00495 194.702
14.6806 -1.0056601 194.84
14.8206 -1.00595 194.897
14.9635 -1.00643 194.991
15.1059 -1.00688 195.077
15.2474 -1.00726 195.151
15.3911 -1.0077699 195.25
15.5314 -1.00806 195.30499
15.6732 -1.00843 195.377
15.8171 -1.00894 195.47501
15.9567 -1.00915 195.51801
16.0949 -1.00928 195.543
16.2339 -1.00946 195.578
16.378599 -1.00999 195.67999
16.5238 -1.01054 195.787
16.673201 -1.01134 195.94099
16.965599 -1.0125099 196.16701
17.113501 -1.01318 196.297
17.253099 -1.01335 196.33099
17.3908 -1.01341 196.343
17.5177 -1.01285 196.233
17.6472 -1.01244 196.15401
17.774099 -1.0118901 196.048
17.899799 -1.0112799 195.929
18.0273 -1.01078 195.83299
18.279301 -1.00964 195.612
18.4065 -1.00915 195.51601
18.5375 -1.00887 195.463
18.6691 -1.00863 195.416
18.8043 -1.00858 195.407
18.9431 -1.0087301 195.435
19.084101 -1.00899 195.48599
19.2262 -1.00931 195.547
19.367701 -1.00958 195.601
19.5072 -1.00976 195.63499
19.639 -1.0095299 195.591
19.7696 -1.00925 195.536
19.8993 -1.00892 195.47301
20.028799 -1.00859 195.409
20.1637 -1.00854 195.39799
20.3036 -1.0087301 195.436
20.447701 -1.00912 195.51199
20.594801 -1.00966 195.616
21.192801 -1.02542 198.66901
21.537399 -1.02867 199.299
21.687799 -1.02922 199.40601
21.836 -1.02966 199.491
21.9932 -1.03052 199.658
22.1465 -1.03119 199.787
22.3062 -1.03214 199.97099
22.4638 -1.03299 200.13499
22.634199 -1.03441 200.411
22.801001 -1.03565 200.651
22.9762 -1.03725 200.96201
23.1465 -1.03862 201.226
23.3305 -1.04057 201.605
23.5119 -1.04239 201.95799
23.6991 -1.04445 202.355
-2.66155 -0.86361003 193.42101
-2.5255001 -0.86313099 193.314
-2.3901801 -0.86286497 193.254
-2.2555799 -0.86283797 193.248
-2.1208999 -0.86277902 193.235
-1.98638 -0.86277997 193.235
-1.85199 -0.86283797 193.248
-1.71759 -0.86290598 193.26401
-1.58333 -0.86305702 193.297
-1.44893 -0.86315501 193.319
-1.3148 -0.86344898 193.38499
-1.18058 -0.86374497 193.451
-1.04617 -0.86396098 193.5
-0.91186798 -0.864344 193.586
-0.777376 -0.86464798 193.65401
-0.64278799 -0.86495 193.72099
-0.50798899 -0.86505401 193.745
-0.373144 -0.865125 193.75999
-0.238355 -0.86547703 193.839
-0.103436 -0.86566901 193.882
0.0315401 -0.86579502 193.911
0.166604 -0.86617398 193.995
0.301716 -0.86635101 194.035
0.43680701 -0.86637801 194.041
0.57188702 -0.86637503 194.041
0.70712602 -0.86656702 194.084
0.84213799 -0.86646497 194.061
0.97750098 -0.86670202 194.114
1.11259 -0.86667103 194.10699
1.24779 -0.86671901 194.118
1.3833801 -0.86700702 194.18201
1.51828 -0.86684698 194.146
1.6532 -0.866723 194.119
1.78769 -0.86641002 194.048
1.92224 -0.866166 193.994
2.05669 -0.86591601 193.938
2.32495 -0.86525899 193.791
2.4589701 -0.86494797 193.72099
2.5925601 -0.86452401 193.62601
2.72611 -0.86412901 193.537
2.85974 -0.86379898 193.463
2.99318 -0.86343902 193.383
3.1272399 -0.86328298 193.34801
3.2602799 -0.862872 193.256
3.39329 -0.86248302 193.16901
3.52511 -0.861835 193.024
3.6580601 -0.86150002 192.94901
3.79158 -0.86131698 192.908
3.9241099 -0.86092901 192.821
4.1893601 -0.86027098 192.673
4.3221798 -0.86001003 192.61501
4.4540701 -0.859586 192.52
4.7200398 -0.85920697 192.435
4.8527498 -0.85898602 192.386
4.9842801 -0.85857201 192.293
5.1171398 -0.85840398 192.255
5.3820601 -0.85796303 192.157
5.5150599 -0.857844 192.13
5.6470599 -0.85757798 192.07001
5.7797999 -0.85743397 192.03799
5.9103498 -0.85697901 191.936
6.0422301 -0.85673302 191.881
6.1735601 -0.85642099 191.811
6.3063998 -0.85632801 191.78999
6.4391599 -0.85622698 191.76801
6.57162 -0.85609198 191.737
6.70502 -0.85608202 191.735
6.8372698 -0.855928 191.701
6.9702401 -0.85586798 191.687
7.1034498 -0.85584098 191.681
7.2357402 -0.85570502 191.651
7.3694901 -0.85574299 191.659
7.5015101 -0.85558301 191.62399
7.6335702 -0.855434 191.59
7.7670102 -0.85544097 191.592
7.9022899 -0.85564601 191.638
8.0361099 -0.85569 191.647
8.1704998 -0.855793 191.67
8.3070202 -0.85611099 191.742
8.4393196 -0.85598999 191.715
8.5737801 -0.85609001 191.737
8.7098598 -0.85634601 191.79401
8.8431501 -0.85632402 191.789
8.9776802 -0.85642099 191.811
9.1135101 -0.856637 191.86
9.2488298 -0.85680002 191.896
9.3839102 -0.85693598 191.927
9.51859 -0.85703301 191.948
9.6523304 -0.85704303 191.95
9.7889404 -0.85730398 192.009
9.9262505 -0.85761899 192.07899
10.0623 -0.85782099 192.125
10.1989 -0.85805702 192.17799
10.3384 -0.85852998 192.283
10.4749 -0.85874897 192.33299
10.611 -0.85892898 192.373
10.7481 -0.85918403 192.42999
10.8846 -0.85938102 192.474
11.0214 -0.85959899 192.52299
11.1587 -0.85985202 192.58
11.2951 -0.860035 192.62
11.4344 -0.860421 192.707
11.5748 -0.86088598 192.811
11.7123 -0.86112899 192.866
11.8513 -0.861476 192.94299
11.9868 -0.86155999 192.96201
12.1258 -0.86188698 193.035
12.2607 -0.861929 193.045
12.3967 -0.86203802 193.069
12.7961 -0.86178398 193.01199
12.9362 -0.86216301 193.097
13.0752 -0.86246401 193.16499
13.2127 -0.86266601 193.21001
13.3545 -0.86313498 193.315
13.5149 -0.86478901 193.685
13.6708 -0.86612201 193.98399
13.8182 -0.866898 194.158
13.9659 -0.867679 194.332
14.1088 -0.86814398 194.437
14.2477 -0.868361 194.485
14.3906 -0.86881602 194.58701
14.5369 -0.86945999 194.73199
14.6823 -0.87004602 194.86301
14.8255 -0.870489 194.96201
14.9665 -0.87079298 195.03
15.1091 -0.87118602 195.118
15.2501 -0.87148303 195.185
15.3912 -0.87177998 195.25101
15.5331 -0.87211603 195.326
15.6739 -0.87238401 195.386
15.8158 -0.87270898 195.459
15.9548 -0.87286597 195.494
16.093901 -0.87303299 195.532
16.2339 -0.87323803 195.578
16.5231 -0.87413198 195.778
16.8265 -0.87573802 196.138
16.979 -0.87656403 196.323
17.129801 -0.87728399 196.48399
17.274599 -0.877693 196.575
17.400999 -0.87716901 196.45799
17.5275 -0.87665403 196.343
17.6555 -0.87622303 196.246
17.7838 -0.87581098 196.15401
17.9086 -0.87523699 196.02499
18.0336 -0.874681 195.901
18.1605 -0.87422699 195.799
18.2848 -0.87365299 195.67
18.4114 -0.87319702 195.56799
18.539801 -0.87283099 195.487
18.671 -0.87260097 195.435
18.806101 -0.872558 195.425
18.942801 -0.87258703 195.43201
19.0832 -0.87278599 195.476
19.2237 -0.87299001 195.522
19.3652 -0.87323201 195.576
19.506201 -0.87344998 195.625
19.639 -0.87329799 195.591
19.770599 -0.87309903 195.54601
19.9013 -0.872859 195.493
20.0299 -0.872531 195.41901
20.1656 -0.872518 195.416
20.305099 -0.872666 195.45
20.4464 -0.87288898 195.49899
20.5942 -0.87338603 195.61099
20.784 -0.87564701 196.117
21.1719 -0.88616902 198.474
21.3976 -0.889808 199.289
21.5397 -0.88994497 199.319
21.686899 -0.890293 199.397
21.8388 -0.89082497 199.517
21.996799 -0.89160001 199.69
22.1467 -0.89204103 199.789
22.311399 -0.89306498 200.01801
22.4755 -0.894054 200.24001
22.6486 -0.89538401 200.53799
22.8113 -0.896294 200.741
22.99 -0.89781499 201.082
23.155199 -0.89879298 201.30099
23.343 -0.90063101 201.713
23.5289 -0.90237701 202.104
23.7174 -0.90420002 202.51199
23.917801 -0.906452 203.017
-2.6605799 -0.72862101 193.351
-2.52495 -0.72832501 193.272
-2.3902299 -0.72827202 193.258
-2.2552199 -0.728118 193.217
-2.1203599 -0.72799802 193.185
-1.98612 -0.72808999 193.21001
-1.85159 -0.72807902 193.207
-1.71734 -0.72818702 193.235
-1.58315 -0.72833699 193.27499
-1.44871 -0.72839397 193.28999
-1.31458 -0.72863001 193.353
-1.18037 -0.72886997 193.41701
-1.04602 -0.72907901 193.472
-0.91165501 -0.72933698 193.541
-0.77717203 -0.729572 193.603
-0.64256698 -0.72976702 193.655
-0.50788599 -0.72995698 193.705
-0.373061 -0.73000199 193.717
-0.238282 -0.730241 193.78
0.031533599 -0.73058099 193.871
0.166558 -0.73085099 193.942
0.30162799 -0.73098803 193.979
0.43666199 -0.73097903 193.976
0.57168198 -0.73095798 193.97099
0.70684701 -0.731094 194.007
0.84193301 -0.73111898 194.01401
0.97721398 -0.731282 194.05701
1.1122 -0.73121202 194.03799
1.24728 -0.73121297 194.03799
1.38266 -0.73137099 194.08
1.51749 -0.73123598 194.045
1.65228 -0.73110402 194.009
1.78687 -0.730914 193.959
1.92146 -0.73074698 193.91499
2.05583 -0.73052698 193.856
2.18997 -0.73025602 193.785
2.32391 -0.72995198 193.70399
2.4579799 -0.72972101 193.642
2.5914299 -0.72934002 193.54201
2.7248099 -0.72897798 193.44501
2.85868 -0.72877598 193.392
3.12588 -0.72829598 193.26401
3.25877 -0.72792602 193.166
3.3920701 -0.72767597 193.10001
3.5236299 -0.72708201 192.942
3.6565399 -0.72680402 192.868
3.7897401 -0.72659898 192.814
3.92219 -0.72627097 192.72701
4.0548401 -0.72599798 192.655
4.1879501 -0.725824 192.608
4.3208199 -0.72561997 192.554
4.45294 -0.72530597 192.47099
4.5852499 -0.72504097 192.401
4.71808 -0.72487098 192.355
4.8507099 -0.72468001 192.30499
4.9822001 -0.72433197 192.213
5.1148901 -0.72417402 192.17101
5.2473698 -0.72399402 192.123
5.3793201 -0.72375202 192.05901
5.51196 -0.72361302 192.022
5.6444101 -0.72345698 191.98
5.7775798 -0.723396 191.964
5.90803 -0.72300702 191.86099
6.0397801 -0.72278899 191.80299
6.1711702 -0.72254002 191.737
6.3042102 -0.72249001 191.724
6.43678 -0.72238898 191.69701
6.5700402 -0.722368 191.69099
6.7033801 -0.72235602 191.688
6.83529 -0.72219402 191.645
6.9679098 -0.72211301 191.62399
7.1016698 -0.72214901 191.633
7.23421 -0.722063 191.61
7.3678699 -0.72208899 191.617
7.5001101 -0.72197801 191.588
7.6317201 -0.72180998 191.543
7.76546 -0.72184801 191.55299
7.9007401 -0.72202402 191.60001
8.0341597 -0.722027 191.601
8.1690302 -0.72215903 191.636
8.3047895 -0.72236401 191.69
8.4381399 -0.72235602 191.688
8.5722904 -0.72241497 191.70399
8.7091904 -0.72270101 191.78
8.8424397 -0.72267997 191.774
8.9773102 -0.72279 191.80299
9.1129704 -0.72295898 191.84801
9.2483597 -0.72310299 191.886
9.3830996 -0.72319198 191.91
9.5179996 -0.72329098 191.936
9.6522503 -0.72333801 191.94901
9.7876501 -0.72346997 191.98399
9.9249802 -0.72373801 192.05499
10.0606 -0.72387803 192.092
10.1982 -0.72415102 192.164
10.3365 -0.72446603 192.248
10.4733 -0.72466999 192.302
10.6096 -0.72483999 192.347
10.7471 -0.72508103 192.411
10.8833 -0.72523499 192.452
11.021 -0.72547501 192.51601
11.1588 -0.725725 192.582
11.2955 -0.72588998 192.62601
11.435 -0.72623599 192.718
11.5742 -0.72655398 192.802
11.7135 -0.72686601 192.88499
11.8529 -0.72718 192.968
11.9899 -0.72734201 193.011
12.1279 -0.72756201 193.07001
12.2638 -0.72764802 193.092
12.4005 -0.72778398 193.12801
12.5368 -0.72789001 193.157
12.6694 -0.72778499 193.129
12.8038 -0.72778302 193.12801
12.9409 -0.72793102 193.16701
13.078 -0.72807503 193.20599
13.2188 -0.72842097 193.298
13.3702 -0.72934002 193.541
13.6773 -0.73135298 194.075
13.8223 -0.73187602 194.215
13.9692 -0.73249102 194.37801
14.1099 -0.73277199 194.452
14.3939 -0.73345 194.632
14.5406 -0.73401499 194.782
14.6855 -0.734478 194.905
14.8272 -0.73477501 194.98399
14.9693 -0.73508799 195.067
15.1115 -0.73540002 195.149
15.2518 -0.73561502 195.207
15.3923 -0.73583502 195.265
15.5327 -0.73604602 195.321
15.6732 -0.73626101 195.37801
15.8142 -0.736494 195.44
15.9539 -0.73665798 195.483
16.092699 -0.73678601 195.517
16.2311 -0.73688799 195.54401
16.371099 -0.73706001 195.59
16.5186 -0.73756999 195.72501
16.6677 -0.73813599 195.875
16.8393 -0.73968703 196.287
16.999399 -0.74071002 196.55901
17.1479 -0.74121201 196.692
17.287201 -0.74131501 196.71899
17.414101 -0.74088699 196.606
17.539801 -0.74041498 196.48
17.6677 -0.74004298 196.382
17.7913 -0.73949701 196.237
17.916901 -0.73904598 196.117
18.044701 -0.73868698 196.022
18.1675 -0.73813099 195.87399
18.292801 -0.73768699 195.757
18.416201 -0.73717099 195.62
18.542999 -0.73679698 195.52
18.6744 -0.73661298 195.47099
18.8085 -0.736534 195.451
18.943701 -0.73650098 195.442
19.082001 -0.73658502 195.464
19.2225 -0.73675698 195.50999
19.3647 -0.73698801 195.571
19.505199 -0.73715103 195.614
19.637501 -0.73700899 195.577
19.7698 -0.736866 195.539
19.903299 -0.73676699 195.51199
20.032801 -0.736525 195.448
20.165199 -0.73638999 195.412
20.307199 -0.73660702 195.47
20.4482 -0.73678499 195.517
20.5951 -0.73716998 195.619
20.783899 -0.739043 196.116
21.163799 -0.747639 198.397
21.4044 -0.75123501 199.35201
21.544901 -0.75129598 199.368
21.6926 -0.75160402 199.44901
21.8442 -0.75204301 199.56599
22.002399 -0.75270301 199.741
22.1537 -0.75311899 199.85201
22.320801 -0.75406599 200.103
22.489 -0.75503403 200.36
22.662399 -0.75616699 200.66
22.8251 -0.75692898 200.86301
23.003 -0.75818402 201.196
23.170601 -0.75908703 201.435
23.3557 -0.76054698 201.823
23.5488 -0.76224899 202.274
23.7335 -0.76366103 202.649
23.9401 -0.76575798 203.205
-2.79512 -0.59393501 193.347
-2.6596 -0.59372801 193.27901
-2.5242 -0.59353101 193.215
-2.3896 -0.59350598 193.207
-2.25455 -0.59336102 193.16
-2.1198101 -0.59328598 193.136
-1.98577 -0.59341002 193.17599
-1.85105 -0.59333301 193.151
-1.71701 -0.593476 193.19701
-1.5829999 -0.59366101 193.257
-1.44855 -0.59369498 193.269
-1.31437 -0.59385699 193.321
-1.18006 -0.59399402 193.366
-1.04577 -0.59417802 193.42599
-0.91149902 -0.59442902 193.507
-0.77704298 -0.59462398 193.571
-0.64235902 -0.59468901 193.592
-0.50775802 -0.59488702 193.65601
-0.372971 -0.59493101 193.67101
-0.238234 -0.59514701 193.741
-0.103395 -0.59534198 193.80499
0.031528499 -0.59544802 193.839
0.166531 -0.595667 193.911
0.30156299 -0.59574699 193.937
0.43655199 -0.59571999 193.92799
0.57158798 -0.59575403 193.939
0.70662898 -0.595779 193.94701
0.84160501 -0.59575099 193.938
0.97686499 -0.59590298 193.987
1.11182 -0.59585601 193.972
1.24677 -0.595815 193.959
1.38204 -0.59592003 193.993
1.5166399 -0.59574401 193.935
1.65132 -0.59562498 193.897
1.78588 -0.595487 193.85201
1.92068 -0.595438 193.836
2.05494 -0.59524399 193.77299
2.1890199 -0.59502 193.7
2.3225901 -0.59469402 193.59399
2.45697 -0.59459901 193.563
2.5902901 -0.59427297 193.457
2.7234001 -0.59393197 193.34599
2.8575101 -0.59382999 193.312
2.9907899 -0.59357297 193.229
3.1243701 -0.59339499 193.17101
3.25734 -0.59311998 193.08099
3.39081 -0.59295499 193.028
3.5227799 -0.59254998 192.896
3.65523 -0.59225303 192.799
3.7883101 -0.59207499 192.741
3.9205101 -0.59177703 192.644
4.0532598 -0.59157801 192.57899
4.1862898 -0.59143198 192.532
4.3186402 -0.59120202 192.457
4.4512701 -0.59102303 192.399
4.5833998 -0.59078997 192.323
4.7160902 -0.59064102 192.274
4.8481598 -0.59042299 192.203
4.97995 -0.59018499 192.12601
5.11235 -0.590029 192.075
5.24475 -0.58988202 192.02699
5.3762498 -0.58964199 191.94901
5.6415501 -0.58943802 191.883
5.7747002 -0.58939499 191.869
5.9056001 -0.58912897 191.782
6.0378299 -0.58900303 191.741
6.1691399 -0.58879602 191.674
6.4351301 -0.58871597 191.64799
6.5684199 -0.588705 191.644
6.7014198 -0.588669 191.632
6.8337898 -0.588579 191.603
6.96626 -0.58850199 191.578
7.0999999 -0.58853298 191.588
7.2325602 -0.58846599 191.56599
7.36586 -0.588462 191.565
7.4981399 -0.588377 191.537
7.63061 -0.58831102 191.51601
7.7639599 -0.58831197 191.51601
7.8984199 -0.58839703 191.54401
8.0322104 -0.58842999 191.554
8.1670799 -0.588539 191.59
8.302 -0.58864897 191.62601
8.4358997 -0.58868301 191.63699
8.5714502 -0.58882999 191.685
8.7079496 -0.589037 191.752
8.8415604 -0.58904499 191.755
8.97682 -0.58916098 191.793
9.1129799 -0.58933198 191.84801
9.2477999 -0.58941299 191.875
9.3828697 -0.58950698 191.905
9.5171299 -0.58954799 191.91901
9.6516304 -0.58960301 191.936
9.7874298 -0.58973402 191.979
9.9235201 -0.58987999 192.02699
10.0603 -0.59006202 192.086
10.1975 -0.590262 192.151
10.3356 -0.590509 192.231
10.472 -0.590657 192.28
10.6083 -0.59079099 192.323
10.746 -0.59100401 192.39301
10.8829 -0.59116501 192.44501
11.0214 -0.59140402 192.52299
11.1584 -0.591564 192.575
11.2953 -0.59170997 192.62199
11.4338 -0.59193897 192.69701
11.5738 -0.59223998 192.795
11.7144 -0.592565 192.901
11.8549 -0.59287399 193.00101
11.9916 -0.59298903 193.039
12.1295 -0.59316099 193.095
12.2674 -0.59332901 193.149
12.4044 -0.59345102 193.189
12.5418 -0.59359002 193.23399
12.675 -0.59352797 193.214
12.8115 -0.59361798 193.243
12.9452 -0.59358197 193.23199
13.0829 -0.59372699 193.27901
13.5313 -0.595698 193.92101
13.8249 -0.59671301 194.25101
13.972 -0.59722102 194.416
14.2529 -0.59764898 194.556
14.3974 -0.598028 194.679
14.5444 -0.598499 194.832
14.6898 -0.59889603 194.96201
14.8301 -0.59908301 195.02299
14.9715 -0.59930801 195.09599
15.1131 -0.59953701 195.17
15.2536 -0.59971899 195.23
15.3945 -0.59991503 195.293
15.5336 -0.60003603 195.33299
15.6724 -0.60014403 195.368
15.8121 -0.60028303 195.41299
15.9512 -0.60039699 195.45
16.0896 -0.60048401 195.479
16.226801 -0.60052598 195.492
16.364599 -0.60058898 195.513
16.504801 -0.60073799 195.561
16.659599 -0.60141301 195.78101
16.834999 -0.60281098 196.23599
17.023899 -0.60466897 196.841
17.166 -0.60484701 196.899
17.2969 -0.60463297 196.82899
17.5534 -0.604029 196.633
17.675501 -0.60352498 196.46899
17.8011 -0.60314697 196.345
17.929501 -0.60286599 196.254
18.052099 -0.60239798 196.10201
18.176001 -0.60197997 195.966
18.2997 -0.60156298 195.83
18.4205 -0.60105598 195.66499
18.5471 -0.60074598 195.564
18.6766 -0.60053098 195.494
18.810101 -0.600447 195.467
18.945499 -0.60042799 195.46001
19.0823 -0.60045099 195.468
19.2202 -0.60050702 195.48599
19.362101 -0.60068703 195.545
19.500999 -0.60077298 195.573
19.6362 -0.60074401 195.563
19.769899 -0.60066998 195.539
19.9018 -0.60054201 195.49699
20.0303 -0.60031497 195.424
20.167999 -0.60036302 195.439
20.3081 -0.600483 195.478
20.449499 -0.60063899 195.52901
20.5977 -0.60099101 195.644
20.7819 -0.60238397 196.097
21.156799 -0.60924703 198.33099
21.4091 -0.61251599 199.396
21.5516 -0.61262101 199.42999
21.702 -0.612948 199.536
21.855101 -0.61334699 199.666
22.0084 -0.61374402 199.795
22.1649 -0.61422801 199.953
22.329901 -0.61493802 200.18401
22.503401 -0.61587203 200.48801
22.678699 -0.616844 200.804
22.8419 -0.61747903 201.011
23.017799 -0.61844498 201.325
23.188101 -0.61924899 201.58701
23.3748 -0.62047797 201.987
23.563999 -0.62176198 202.405
23.7509 -0.62296897 202.798
-2.6591799 -0.459032 193.24899
-2.52373 -0.45886499 193.179
-2.38886 -0.45879099 193.147
-2.2539599 -0.458702 193.11
-2.1194301 -0.45868099 193.101
-1.9854701 -0.45878899 193.147
-1.85075 -0.45872399 193.119
-1.58279 -0.458992 193.23199
-1.44846 -0.45905101 193.257
-1.31418 -0.45914 193.29401
-1.17983 -0.45922199 193.32899
-1.0455101 -0.459337 193.377
-0.91132301 -0.459557 193.47
-0.77689898 -0.459712 193.535
-0.64221102 -0.459741 193.548
-0.507649 -0.45990101 193.61501
-0.372915 -0.45996401 193.64101
-0.23819 -0.46011701 193.70599
-0.103377 -0.460273 193.772
0.031522501 -0.46034601 193.802
0.436463 -0.46055099 193.888
0.571482 -0.46058601 193.903
0.706505 -0.46061 193.91299
0.84126002 -0.46048 193.858
0.97645301 -0.460592 193.90601
1.11146 -0.46059999 193.909
1.24632 -0.46055299 193.88901
1.38143 -0.46059701 193.908
1.51606 -0.46048701 193.862
1.6506799 -0.46039301 193.82201
1.7852499 -0.460302 193.784
1.91993 -0.46024701 193.75999
2.0541501 -0.460098 193.698
2.1883299 -0.45996001 193.64
2.4561601 -0.45962599 193.49899
2.5894001 -0.45936701 193.39
2.7223301 -0.45908099 193.27
2.85658 -0.45903301 193.25
2.98997 -0.458857 193.175
3.12309 -0.45865801 193.092
3.25617 -0.45846999 193.01199
3.38902 -0.45826399 192.92599
3.5214901 -0.45802599 192.825
3.65412 -0.45782399 192.741
3.7871699 -0.457688 192.683
3.91959 -0.45748699 192.599
4.05162 -0.45725599 192.50101
4.1845498 -0.45713899 192.452
4.3168201 -0.456958 192.37601
4.4490299 -0.45678201 192.302
4.58108 -0.45660099 192.226
4.7143798 -0.45655099 192.20399
4.8463402 -0.456377 192.131
4.9783902 -0.45622101 192.06599
5.1104698 -0.456076 192.004
5.2429199 -0.455971 191.96001
5.5073099 -0.455733 191.86
5.63937 -0.45561099 191.80901
5.7720499 -0.45554399 191.78101
5.90343 -0.45537999 191.711
6.0358 -0.45529801 191.677
6.1676502 -0.45517999 191.627
6.3006701 -0.45515299 191.616
6.43362 -0.45512199 191.603
6.5663199 -0.45507401 191.58299
6.69981 -0.455082 191.586
6.8323202 -0.45502499 191.562
6.9650602 -0.45498401 191.545
7.0987701 -0.455008 191.55499
7.2311201 -0.454945 191.528
7.36414 -0.454925 191.52
7.4970798 -0.45490199 191.50999
7.7635002 -0.454889 191.505
7.8975101 -0.45492899 191.522
8.03088 -0.45493099 191.52299
8.16537 -0.45499599 191.55
8.2994204 -0.455035 191.56599
8.4346704 -0.45513701 191.60899
8.5701303 -0.45524701 191.655
8.70646 -0.45539901 191.72
8.8404703 -0.45542699 191.731
8.9759903 -0.455531 191.77499
9.1124897 -0.455681 191.838
9.24646 -0.45570099 191.847
9.3809795 -0.45574799 191.866
9.5159302 -0.455814 191.894
9.6511402 -0.45589101 191.927
9.7873898 -0.45601401 191.978
9.9225903 -0.45608601 192.009
10.0589 -0.45620701 192.06
10.1969 -0.45639601 192.13901
10.3351 -0.45659399 192.222
10.4712 -0.45669201 192.26401
10.6079 -0.456819 192.317
10.7455 -0.45697299 192.382
10.8829 -0.45711899 192.444
11.0211 -0.457297 192.51801
11.1583 -0.457427 192.573
11.2955 -0.45755401 192.627
11.4341 -0.45773199 192.702
11.5743 -0.45797199 192.80299
11.716 -0.45826599 192.92599
11.8558 -0.45847699 193.015
11.9935 -0.45860699 193.07001
12.1318 -0.45875299 193.132
12.2707 -0.45891899 193.201
12.4072 -0.45899501 193.233
12.5453 -0.459124 193.28799
12.6797 -0.45912001 193.286
12.816 -0.45918199 193.312
12.9509 -0.45919201 193.317
13.0932 -0.45946401 193.431
13.2419 -0.45995 193.636
13.391 -0.46044299 193.843
13.5374 -0.46083301 194.007
13.6827 -0.461178 194.15199
13.8283 -0.46152601 194.299
13.9736 -0.461858 194.439
14.116 -0.462089 194.536
14.2563 -0.46224701 194.60201
14.4013 -0.46255201 194.731
14.549 -0.46293801 194.894
14.6939 -0.463229 195.01601
14.8337 -0.463357 195.07001
14.9734 -0.463476 195.12
15.1159 -0.46368 195.20599
15.2568 -0.463833 195.27
15.3971 -0.463965 195.326
15.5356 -0.46404001 195.358
15.6724 -0.46406299 195.367
15.8113 -0.464149 195.403
15.9486 -0.464187 195.41901
16.086 -0.46422499 195.435
16.223101 -0.46425599 195.448
16.3592 -0.46425599 195.448
16.495001 -0.46424901 195.44501
16.6532 -0.464867 195.70599
16.821699 -0.46575901 196.08099
17.049101 -0.46825701 197.133
17.184 -0.46819201 197.105
17.312799 -0.467967 197.00999
17.437799 -0.46764001 196.873
17.561399 -0.46728101 196.722
17.6833 -0.46688601 196.556
17.809099 -0.46659601 196.433
17.933399 -0.466272 196.297
18.0595 -0.46599901 196.18201
18.184999 -0.465716 196.063
18.3027 -0.465238 195.862
18.4231 -0.46483499 195.692
18.5504 -0.46461201 195.59801
18.677999 -0.46440101 195.509
18.8102 -0.464304 195.46899
18.944401 -0.46425799 195.44901
19.0812 -0.464275 195.45599
19.2192 -0.46432301 195.476
19.3605 -0.46444601 195.528
19.4986 -0.464495 195.549
19.6346 -0.46449101 195.547
19.7689 -0.46444899 195.52901
19.902901 -0.46439901 195.508
20.0341 -0.464286 195.461
20.166599 -0.46420401 195.42599
20.3069 -0.46430001 195.467
20.4512 -0.46448699 195.545
20.600201 -0.46477699 195.668
20.784901 -0.465864 196.125
21.1686 -0.47136801 198.442
21.417601 -0.47382 199.47501
21.5604 -0.47390699 199.511
21.8659 -0.474509 199.765
22.017 -0.47476801 199.87399
22.1777 -0.475229 200.06799
22.341499 -0.47575301 200.28799
22.5149 -0.47647101 200.591
22.691299 -0.477245 200.916
22.8587 -0.47782001 201.158
23.2043 -0.479173 201.728
23.393101 -0.480165 202.146
23.5802 -0.48111299 202.545
23.7696 -0.48209301 202.957
-2.65852 -0.324348 193.201
-2.5231199 -0.324233 193.132
-2.3884301 -0.3242 193.11301
-2.2537301 -0.32416201 193.09
-2.1192701 -0.32415599 193.086
-1.9851201 -0.32419899 193.112
-1.85053 -0.324173 193.09599
-1.71647 -0.32424101 193.13699
-1.58254 -0.32434899 193.201
-1.44831 -0.32440701 193.23599
-1.3140399 -0.32447001 193.27299
-1.17971 -0.32453099 193.31
-1.04537 -0.32460299 193.353
-0.91118401 -0.32475099 193.44099
-0.77674001 -0.32484299 193.495
-0.64208901 -0.32486799 193.511
-0.507568 -0.32499099 193.584
-0.37285399 -0.32503501 193.61
-0.23813801 -0.32512501 193.664
-0.103362 -0.325261 193.744
0.0315133 -0.32526401 193.746
0.166429 -0.32534 193.791
0.30139101 -0.325398 193.826
0.43633699 -0.32540801 193.832
0.57133102 -0.325441 193.85201
0.70640898 -0.32550001 193.88699
0.84107602 -0.32538101 193.81599
0.97609502 -0.32541201 193.834
1.11105 -0.32541701 193.838
1.24589 -0.32539099 193.82201
1.3808399 -0.32539499 193.82401
1.51559 -0.32535699 193.802
1.65005 -0.32526699 193.748
1.7844501 -0.32517999 193.696
1.91908 -0.32514501 193.675
2.05339 -0.32506201 193.62601
2.1876199 -0.32497799 193.576
2.3213 -0.324828 193.48599
2.4554 -0.32474899 193.44
2.5885301 -0.32455599 193.325
2.7213099 -0.324341 193.19701
2.85535 -0.32429099 193.166
2.98879 -0.32417801 193.10001
3.1219201 -0.32404399 193.02
3.25508 -0.32392299 192.948
3.3877499 -0.32376501 192.853
3.52016 -0.32359499 192.752
3.6527801 -0.323457 192.67
3.78564 -0.323349 192.605
3.9184999 -0.323248 192.54601
4.0504799 -0.32308301 192.44701
4.18259 -0.32293901 192.362
4.3156099 -0.322873 192.32201
4.4475598 -0.322732 192.23801
4.5791898 -0.32257801 192.146
4.8446898 -0.32244301 192.06599
4.9766698 -0.32233101 191.99899
5.1085401 -0.322218 191.93201
5.2410598 -0.32215101 191.892
5.3726401 -0.32203099 191.82001
5.5054798 -0.32199001 191.79601
5.63697 -0.32187399 191.72701
5.76964 -0.32182899 191.7
5.90135 -0.32173401 191.644
6.16643 -0.32164299 191.59
6.2989998 -0.32160199 191.565
6.4318099 -0.32157499 191.549
6.5643702 -0.321536 191.526
6.6976099 -0.32153201 191.52299
6.8308201 -0.32152599 191.52
6.9640398 -0.32152101 191.517
7.0972199 -0.32151499 191.513
7.22926 -0.32145801 191.479
7.3623099 -0.32144701 191.47301
7.4963698 -0.32148001 191.492
7.6290002 -0.32145101 191.47501
7.7633801 -0.32149601 191.502
7.8970799 -0.32151201 191.511
8.03022 -0.32150501 191.507
8.1644497 -0.32154 191.528
8.2981501 -0.32155499 191.537
8.4341002 -0.32165399 191.59599
8.5685902 -0.32169601 191.621
8.7049503 -0.32180601 191.686
8.8393297 -0.321839 191.70599
8.9741697 -0.32188901 191.73599
9.1111202 -0.32201201 191.80901
9.2440701 -0.32199201 191.797
9.3787699 -0.322032 191.821
9.5144596 -0.32210499 191.86501
9.6498299 -0.322166 191.901
9.78724 -0.32229099 191.97501
9.9225798 -0.322346 192.008
10.0583 -0.322413 192.048
10.1971 -0.32257301 192.144
10.3342 -0.322678 192.20599
10.4708 -0.32276401 192.257
10.6089 -0.32289201 192.334
10.7465 -0.32300401 192.39999
10.8837 -0.32310301 192.459
11.1599 -0.32334 192.601
11.2968 -0.32341999 192.64799
11.4357 -0.32355601 192.729
11.5751 -0.32370201 192.81599
11.717 -0.323915 192.94299
11.8562 -0.32404801 193.022
11.9947 -0.32416001 193.089
12.134 -0.32429099 193.16701
12.2728 -0.324404 193.23399
12.4097 -0.324467 193.271
12.5484 -0.32457501 193.336
12.6834 -0.32458499 193.342
12.9628 -0.32484099 193.494
13.1074 -0.32508501 193.64
13.2545 -0.325387 193.82001
13.3979 -0.32559299 193.94299
13.541 -0.32578799 194.05901
13.6877 -0.326065 194.22301
13.8331 -0.32630599 194.367
14.119 -0.32666001 194.578
14.2608 -0.326803 194.66299
14.4041 -0.32697999 194.769
14.5529 -0.327279 194.946
14.6971 -0.32746601 195.058
14.8371 -0.32756099 195.11501
14.9753 -0.32761201 195.145
15.1182 -0.327766 195.237
15.259 -0.32787001 195.298
15.3993 -0.32796299 195.354
15.5364 -0.32798499 195.367
15.6712 -0.32796001 195.35201
15.8096 -0.32801101 195.383
15.9479 -0.32805699 195.41
16.0851 -0.328082 195.425
16.2215 -0.328089 195.429
16.357401 -0.32808599 195.427
16.4937 -0.32809001 195.429
16.650999 -0.32850999 195.67999
17.055799 -0.33107999 197.211
17.1887 -0.33099499 197.16
17.317699 -0.330836 197.065
17.437099 -0.33049899 196.86501
17.5623 -0.330277 196.73199
17.687901 -0.330066 196.606
17.8139 -0.32986301 196.48599
17.937401 -0.32962 196.341
18.0634 -0.32942501 196.22501
18.185301 -0.32915801 196.06599
18.302799 -0.32881799 195.86301
18.4245 -0.328556 195.707
18.5515 -0.32839301 195.61
18.677999 -0.32822201 195.508
18.8097 -0.32814601 195.463
18.944599 -0.32812601 195.451
19.0819 -0.32814601 195.463
19.219 -0.32816401 195.474
19.3594 -0.32823801 195.51801
19.497499 -0.328271 195.537
19.633499 -0.328269 195.537
19.768499 -0.32824999 195.52499
19.9044 -0.32824701 195.52299
20.0362 -0.32817599 195.481
20.169201 -0.32812601 195.451
20.308901 -0.32818401 195.48599
20.452499 -0.32830599 195.558
20.599001 -0.328471 195.657
21.192101 -0.33351699 198.66299
21.430201 -0.335078 199.592
21.723101 -0.33531001 199.73
21.878 -0.335554 199.875
22.033501 -0.33580199 200.024
22.194599 -0.33613399 200.22099
22.3582 -0.33649701 200.438
22.5303 -0.33698401 200.728
22.702101 -0.33746201 201.01199
22.874201 -0.337937 201.295
23.039499 -0.33830601 201.515
23.221901 -0.33892101 201.881
23.413401 -0.33965901 202.321
23.597799 -0.340287 202.69501
23.789101 -0.34100699 203.12399
-2.79269 -0.189757 193.179
-2.6579499 -0.18973801 193.16
-2.5227101 -0.18968 193.101
-2.3879001 -0.18965 193.07001
-2.2535999 -0.189659 193.07899
-2.11889 -0.189632 193.052
-1.98469 -0.189651 193.071
-1.8503 -0.189652 193.07201
-1.71626 -0.18969201 193.11301
-1.58227 -0.18974601 193.16701
-1.31384 -0.189821 193.244
-1.17953 -0.18985599 193.27901
-1.04526 -0.189908 193.332
-0.91089702 -0.189954 193.38
-0.77652198 -0.190015 193.44099
-0.64198798 -0.190053 193.48
-0.50745302 -0.19011199 193.53999
-0.372785 -0.190145 193.57401
-0.238093 -0.19019701 193.627
-0.103333 -0.19025899 193.69
0.031505201 -0.190265 193.696
0.16638599 -0.19031 193.742
0.30131701 -0.190346 193.778
0.436223 -0.190349 193.782
0.57118303 -0.190369 193.802
0.70626003 -0.190412 193.84599
0.840904 -0.19034401 193.776
0.97582799 -0.190349 193.78101
1.11069 -0.19034301 193.77499
1.2455 -0.190329 193.761
1.38026 -0.190312 193.744
1.51513 -0.190311 193.743
1.64956 -0.19025999 193.69099
1.78391 -0.190208 193.638
1.9184099 -0.19017801 193.608
2.05269 -0.19013201 193.56
2.3204401 -0.189989 193.41499
2.45421 -0.18992101 193.34599
2.5875499 -0.18982901 193.252
2.72049 -0.18971799 193.13901
2.8541901 -0.189667 193.088
2.9874599 -0.189594 193.013
3.12082 -0.189533 192.951
3.2537701 -0.189454 192.87
3.38679 -0.189384 192.799
3.5190301 -0.18927801 192.69099
3.65132 -0.189182 192.593
3.7842901 -0.189127 192.537
3.91734 -0.189079 192.48801
4.0490699 -0.18897299 192.381
4.1812201 -0.18889301 192.299
4.3143101 -0.188859 192.26401
4.4464698 -0.188787 192.19099
