# .PCD v0.7 - Point Cloud Data file format
VERSION 0.7
FIELDS x y z
SIZE 4 4 4
TYPE F F F
COUNT 1 1 1
WIDTH 1800
HEIGHT 1
VIEWPOINT 0 0 0 1 0 0 0
POINTS 1800
DATA ascii
18.302 -13.0156 195.854
18.452 -13.0253 195.99899
18.598301 -13.0322 196.103
18.7456 -13.0397 196.216
18.8969 -13.0499 196.369
19.045 -13.0577 196.487
19.1954 -13.0669 196.62601
19.3473 -13.0771 196.77901
19.497499 -13.086 196.912
19.6499 -13.0961 197.06599
19.797199 -13.1029 197.16701
19.9468 -13.111 197.289
20.0991 -13.1207 197.436
20.249701 -13.1293 197.564
20.4021 -13.1388 197.70799
20.555401 -13.1489 197.85899
20.702801 -13.155 197.951
20.8531 -13.1629 198.07001
21.0068 -13.1728 198.21899
21.1611 -13.1829 198.37199
21.316099 -13.1934 198.53
21.4709 -13.2036 198.683
21.626699 -13.2143 198.84399
21.7831 -13.2252 199.008
21.941799 -13.2374 199.19099
22.100901 -13.2496 199.375
22.270599 -13.268 199.65199
22.4732 -13.3057 200.21899
22.685801 -13.3488 200.867
22.902201 -13.3936 201.541
23.1329 -13.4461 202.332
-3.8426001 -13.0725 198.79401
-3.6977201 -13.0496 198.446
-3.55336 -13.0268 198.099
-3.2693901 -12.9944 197.606
-3.1285 -12.9806 197.397
-2.9885299 -12.9696 197.228
-2.84937 -12.9611 197.099
-2.71017 -12.9516 196.95399
-2.4325199 -12.9333 196.677
-2.29405 -12.9246 196.54401
-2.1552899 -12.913 196.368
-1.87872 -12.8913 196.03799
-1.7406 -12.8791 195.85201
-1.60306 -12.8695 195.70599
-1.46609 -12.8631 195.60899
-1.3290401 -12.8546 195.48
-1.19231 -12.8476 195.373
-1.05549 -12.8378 195.22501
-0.91904002 -12.8302 195.108
-0.78261399 -12.8203 194.959
-0.64652199 -12.813 194.847
-0.510629 -12.8067 194.752
-0.37489399 -12.8013 194.66901
-0.239209 -12.7924 194.534
-0.103715 -12.784 194.40601
0.0316035 -12.7771 194.30099
0.166767 -12.7694 194.185
0.436638 -12.755 193.966
0.57155299 -12.7525 193.927
0.70620799 -12.7462 193.832
0.84067899 -12.7392 193.724
0.97505099 -12.7328 193.627
1.10929 -12.7264 193.53
1.24326 -12.7187 193.41299
1.3775001 -12.7149 193.356
1.51203 -12.7143 193.34599
1.64632 -12.7119 193.31
1.7803299 -12.7079 193.24899
1.91429 -12.7041 193.19099
2.0483201 -12.7012 193.14799
2.1824999 -12.6996 193.123
2.31672 -12.6984 193.105
2.4504399 -12.6947 193.049
2.5848899 -12.695 193.05299
2.7182801 -12.6903 192.98199
2.85202 -12.6876 192.94099
2.9860301 -12.6864 192.92101
3.1196001 -12.6834 192.87601
3.2533801 -12.6815 192.847
3.3878601 -12.6823 192.86
3.52124 -12.6792 192.812
3.65488 -12.6771 192.78101
3.78951 -12.6785 192.802
3.9228401 -12.6757 192.759
4.05653 -12.6741 192.735
4.1905499 -12.6736 192.728
4.3235602 -12.6703 192.67599
4.4562602 -12.6662 192.61501
4.58986 -12.6648 192.59399
4.72434 -12.6659 192.61099
4.85745 -12.6634 192.57201
4.9916501 -12.6637 192.577
5.1255798 -12.6634 192.57201
5.2604899 -12.6655 192.603
5.39397 -12.664 192.582
5.52666 -12.6609 192.534
5.6578002 -12.6544 192.436
5.7876501 -12.6454 192.299
5.9173698 -12.6366 192.164
6.04741 -12.6288 192.04601
6.1784301 -12.6233 191.96201
6.309 -12.6172 191.869
6.4406099 -12.6133 191.811
6.5720501 -12.6093 191.75
6.7037101 -12.6059 191.698
6.8358402 -12.6035 191.661
6.9685402 -12.6021 191.64101
7.1004601 -12.5995 191.60001
7.2332101 -12.5984 191.584
7.3668299 -12.5988 191.59
7.5003901 -12.5991 191.595
7.6340399 -12.5996 191.60201
7.7663598 -12.5979 191.576
7.8998699 -12.5981 191.57899
8.0329199 -12.5976 191.571
8.1661596 -12.5974 191.56799
8.2993698 -12.5972 191.565
8.4330997 -12.5977 191.573
8.5672197 -12.5988 191.59
8.7005301 -12.5987 191.589
8.8339701 -12.5988 191.59
8.9675798 -12.5992 191.595
9.1007605 -12.5989 191.591
9.2349596 -12.6 191.608
9.3693705 -12.6014 191.629
9.50455 -12.6037 191.66499
9.6392002 -12.6053 191.689
9.7743301 -12.6075 191.722
9.91047 -12.6109 191.774
10.0457 -12.6131 191.808
10.1818 -12.6163 191.856
10.3202 -12.6222 191.946
10.4568 -12.6258 192
10.5957 -12.6321 192.09599
10.734 -12.6374 192.17599
10.8702 -12.6402 192.22
11.0069 -12.6436 192.271
11.2801 -12.6497 192.36301
11.4174 -12.6534 192.42101
11.5542 -12.6565 192.468
11.6905 -12.659 192.506
11.8272 -12.662 192.55099
11.963 -12.6638 192.57899
12.0972 -12.6639 192.58
12.2313 -12.664 192.58099
12.3672 -12.6658 192.60899
12.5031 -12.6677 192.638
12.6385 -12.669 192.658
12.7739 -12.6703 192.677
12.9109 -12.6731 192.72
13.0469 -12.6748 192.746
13.1868 -12.6804 192.83099
13.4583 -12.6832 192.873
13.5923 -12.683 192.87
13.7326 -12.6885 192.955
13.8688 -12.6902 192.98
14.0064 -12.6932 193.026
14.1442 -12.6963 193.073
14.2809 -12.6983 193.103
14.4189 -12.7015 193.151
14.5575 -12.7051 193.20599
14.6978 -12.7101 193.282
14.8378 -12.7147 193.353
14.9762 -12.718 193.40199
15.1147 -12.7212 193.452
15.2546 -12.7256 193.519
15.3971 -12.7321 193.616
15.5357 -12.7352 193.664
15.6745 -12.7384 193.713
15.8133 -12.7416 193.761
15.9577 -12.7492 193.87601
16.1028 -12.7572 193.99899
16.2458 -12.7634 194.093
16.388599 -12.7694 194.185
16.5366 -12.7793 194.33501
16.6814 -12.7866 194.446
16.825199 -12.7931 194.54401
16.967899 -12.7986 194.62801
17.113199 -12.8059 194.739
17.263599 -12.8169 194.90601
17.409 -12.8241 195.015
17.555901 -12.8322 195.13901
17.7015 -12.8393 195.24699
17.850901 -12.8489 195.394
17.9981 -12.857 195.51601
18.146999 -12.866 195.653
18.2959 -12.875 195.78999
18.4436 -12.8829 195.91
18.590401 -12.8901 196.02
18.7383 -12.898 196.13901
18.889299 -12.9079 196.28999
19.037201 -12.9155 196.40601
19.186701 -12.9242 196.537
19.339001 -12.9344 196.694
19.4872 -12.942 196.80901
19.6406 -12.9528 196.97301
19.7876 -12.9593 197.071
19.938 -12.9679 197.202
20.0888 -12.9765 197.334
20.2381 -12.9842 197.451
20.389601 -12.9932 197.58701
20.5396 -13.0011 197.707
20.692801 -13.0108 197.855
20.841801 -13.0179 197.96201
20.9944 -13.027 198.10201
21.15 -13.038 198.26801
21.306101 -13.049 198.436
21.4606 -13.059 198.588
21.616301 -13.0695 198.748
21.774799 -13.0816 198.93201
21.934799 -13.0945 199.12801
22.098499 -13.1094 199.354
22.278999 -13.134 199.728
22.4884 -13.1752 200.355
22.693199 -13.2132 200.933
22.9035 -13.254 201.55299
23.116501 -13.2957 202.188
23.316401 -13.3296 202.703
-3.1324501 -12.8594 197.646
-2.8525901 -12.8383 197.32201
-2.5732901 -12.8155 196.972
-2.4340999 -12.8047 196.80499
-2.2948301 -12.7921 196.61099
-2.1558499 -12.7795 196.41901
-2.01687 -12.7654 196.201
-1.87869 -12.7546 196.035
-1.74036 -12.7409 195.826
-1.60272 -12.7305 195.66499
-1.46571 -12.7235 195.558
-1.3286999 -12.7152 195.42999
-1.19201 -12.7084 195.325
-1.05529 -12.6994 195.187
-0.91875798 -12.6904 195.049
-0.782435 -12.6816 194.914
-0.64634401 -12.6738 194.793
-0.51045501 -12.6667 194.685
-0.374713 -12.6596 194.575
-0.239125 -12.6525 194.466
0.031594001 -12.6379 194.242
0.16671599 -12.6304 194.12601
0.301669 -12.6225 194.005
0.43649101 -12.6157 193.901
0.57133001 -12.6125 193.851
0.84044099 -12.6007 193.67
0.97487003 -12.5956 193.591
1.243 -12.5814 193.373
1.37734 -12.5788 193.334
1.51188 -12.5784 193.327
1.64605 -12.5752 193.27901
1.78014 -12.572 193.229
1.91409 -12.5683 193.17101
2.0480299 -12.565 193.121
2.18221 -12.5634 193.097
2.31639 -12.5621 193.077
2.44996 -12.5578 193.011
2.58429 -12.5577 193.009
2.7178099 -12.5537 192.948
2.8516099 -12.5515 192.91299
2.9855499 -12.5499 192.89
3.1192 -12.5474 192.851
3.25299 -12.5456 192.82401
3.38744 -12.5464 192.836
3.5211599 -12.5446 192.80701
3.6547699 -12.5425 192.77499
3.7892699 -12.5434 192.78999
3.9226899 -12.5409 192.75101
4.0564098 -12.5395 192.729
4.1904402 -12.5391 192.72301
4.3234601 -12.5358 192.672
4.4559498 -12.5311 192.601
4.5893602 -12.5293 192.573
4.7238402 -12.5304 192.59
4.85671 -12.5273 192.543
4.9909601 -12.5279 192.55099
5.1249199 -12.5277 192.548
5.2588201 -12.5273 192.54201
5.39186 -12.525 192.507
5.5245099 -12.5219 192.459
5.6549201 -12.514 192.338
5.7846498 -12.505 192.19901
5.9145899 -12.4968 192.07401
6.0448599 -12.4897 191.965
6.17557 -12.4838 191.87399
6.4381599 -12.475 191.73801
6.5697098 -12.4713 191.68201
6.7019 -12.469 191.646
6.8344002 -12.4673 191.62
6.9670601 -12.466 191.60001
7.0994 -12.4642 191.57201
7.2318201 -12.4626 191.547
7.36515 -12.4625 191.547
7.49859 -12.4627 191.549
7.6326799 -12.4639 191.56799
7.7662902 -12.4643 191.57401
7.8992 -12.4636 191.563
8.0320997 -12.4629 191.552
8.1651897 -12.4625 191.54601
8.2980099 -12.4617 191.534
8.43155 -12.462 191.53799
8.5653696 -12.4627 191.549
8.6984301 -12.4623 191.543
8.83214 -12.4628 191.55099
8.9654503 -12.4627 191.55
9.09799 -12.4616 191.533
9.2316103 -12.462 191.539
9.3660097 -12.4634 191.56
9.5011797 -12.4658 191.597
9.6368198 -12.4687 191.642
9.7720404 -12.471 191.677
9.9071302 -12.4731 191.709
10.0432 -12.4763 191.758
10.1793 -12.4795 191.808
10.3178 -12.4855 191.89999
10.4544 -12.4892 191.95599
10.5936 -12.4957 192.056
10.7319 -12.5011 192.13901
10.8679 -12.5037 192.179
11.0046 -12.507 192.23
11.1425 -12.5116 192.30099
11.2774 -12.5127 192.317
11.4139 -12.5156 192.362
11.5507 -12.5188 192.411
11.6867 -12.5209 192.444
11.8233 -12.5238 192.487
11.9584 -12.5249 192.505
12.0921 -12.5246 192.5
12.226 -12.5244 192.49699
12.3623 -12.5267 192.533
12.4983 -12.5288 192.565
12.6337 -12.53 192.584
12.7695 -12.5318 192.61099
12.9065 -12.5346 192.65401
13.0434 -12.5373 192.696
13.1828 -12.5422 192.771
13.3188 -12.544 192.798
13.4549 -12.5457 192.82401
13.5898 -12.5463 192.834
13.7293 -12.5511 192.908
13.865 -12.5524 192.927
14.0039 -12.5565 192.991
14.1417 -12.5596 193.03799
14.2787 -12.5618 193.073
14.4161 -12.5645 193.114
14.555 -12.5683 193.173
14.6952 -12.5732 193.248
14.8357 -12.5783 193.326
14.9734 -12.581 193.367
15.1108 -12.5833 193.40199
15.2511 -12.588 193.474
15.3924 -12.5933 193.55701
15.5325 -12.5977 193.62399
15.6722 -12.6016 193.68401
15.8107 -12.6045 193.729
15.9547 -12.6118 193.84
16.0989 -12.6191 193.952
16.2428 -12.626 194.058
16.3855 -12.6318 194.14799
16.531401 -12.64 194.274
16.677099 -12.6479 194.396
16.8216 -12.6549 194.502
16.964899 -12.6607 194.592
17.1101 -12.6679 194.703
17.259899 -12.6784 194.86501
17.4048 -12.6852 194.96899
17.551399 -12.693 195.089
17.697599 -12.7004 195.203
17.8458 -12.7092 195.338
17.993799 -12.7177 195.46899
18.142099 -12.7263 195.601
18.2892 -12.7339 195.717
18.4361 -12.7412 195.83
18.5833 -12.7487 195.94501
18.728901 -12.755 196.04201
18.8806 -12.7653 196.2
19.0278 -12.7724 196.30901
19.177 -12.7808 196.438
19.3295 -12.7912 196.597
19.4767 -12.798 196.702
19.6294 -12.8083 196.86099
19.776699 -12.8149 196.96201
19.928301 -12.8242 197.106
20.078899 -12.8328 197.237
20.2272 -12.8398 197.34399
20.380899 -12.8501 197.50301
20.5287 -12.8565 197.60201
20.6817 -12.8661 197.74899
20.833 -12.8745 197.879
20.983 -12.882 197.994
21.139601 -12.8935 198.17101
21.295601 -12.9044 198.338
21.447201 -12.9126 198.463
21.7633 -12.9362 198.827
21.924299 -12.9496 199.032
22.100401 -12.9716 199.37
22.294901 -13.0041 199.87
22.499399 -13.042 200.452
22.695801 -13.0748 200.95599
22.906401 -13.1152 201.578
23.1049 -13.1483 202.08701
23.287001 -13.1717 202.44701
-5.1546698 -12.963 201.394
-5.01162 -12.9556 201.28
-4.8662601 -12.9417 201.063
-4.7199702 -12.9244 200.79401
-4.4281902 -12.8888 200.242
-4.2824602 -12.8698 199.946
-4.13692 -12.8501 199.64
-3.9922099 -12.8317 199.354
-3.84793 -12.8133 199.07001
-3.70384 -12.7943 198.774
-3.41872 -12.7631 198.28799
-3.2769401 -12.7485 198.062
-2.99506 -12.7225 197.659
-2.8545699 -12.7097 197.459
-2.71435 -12.6967 197.258
-2.5743101 -12.6834 197.05
-2.4346199 -12.6703 196.847
-2.29494 -12.6557 196.621
-2.1557701 -12.6422 196.411
-2.0167601 -12.628 196.19
-1.87846 -12.6165 196.011
-1.74006 -12.6023 195.791
-1.60233 -12.5911 195.617
-1.4653 -12.5838 195.50301
-1.32837 -12.5759 195.381
-1.1917 -12.569 195.27299
-1.0549999 -12.56 195.134
-0.918477 -12.5507 194.989
-0.78222603 -12.5425 194.862
-0.64616197 -12.5346 194.73801
-0.51030201 -12.5274 194.627
-0.37455601 -12.5188 194.494
-0.239043 -12.5127 194.399
-0.103656 -12.506 194.295
0.031585399 -12.4992 194.189
0.166667 -12.4915 194.069
0.30158499 -12.4839 193.951
0.43635201 -12.4767 193.839
0.57111502 -12.4728 193.77901
0.705841 -12.4697 193.731
0.84026003 -12.4631 193.62801
0.97477901 -12.4596 193.573
1.10894 -12.4528 193.46899
1.24292 -12.4459 193.36
1.3773299 -12.444 193.332
1.5118099 -12.4432 193.31799
1.6459301 -12.4397 193.26401
1.77997 -12.4362 193.209
1.9139 -12.4325 193.15199
2.0478301 -12.4292 193.101
2.1819301 -12.4274 193.073
2.31604 -12.4258 193.048
2.4495699 -12.4214 192.98
2.5838201 -12.4209 192.97301
2.7175 -12.4179 192.92599
2.85129 -12.4157 192.892
2.9851 -12.4137 192.86099
3.1187799 -12.4114 192.825
3.2525201 -12.4095 192.79601
3.38677 -12.4097 192.798
3.5207801 -12.4089 192.787
3.65416 -12.4061 192.743
3.7883601 -12.4062 192.744
3.92203 -12.4046 192.71899
4.05585 -12.4035 192.703
4.1900001 -12.4035 192.703
4.3231301 -12.4006 192.657
4.45539 -12.3954 192.577
4.5888801 -12.3939 192.55299
4.7236199 -12.3957 192.58099
4.85638 -12.3924 192.52901
4.9904799 -12.3925 192.532
5.1243801 -12.3922 192.52699
5.25739 -12.3898 192.49001
5.3898602 -12.3863 192.435
5.6519098 -12.3734 192.235
5.7816601 -12.3647 192.10001
5.9123502 -12.3584 192.00101
6.0425801 -12.3514 191.892
6.3047299 -12.3415 191.739
6.4358201 -12.337 191.668
6.5678301 -12.3343 191.627
6.7000098 -12.332 191.592
6.8327899 -12.331 191.575
6.9655199 -12.3298 191.558
7.0984502 -12.3291 191.54601
7.23106 -12.3278 191.52699
7.3639798 -12.3272 191.51601
7.4970798 -12.3268 191.50999
7.632 -12.3294 191.55099
7.7664199 -12.3311 191.577
7.8991399 -12.3301 191.561
8.0317202 -12.3289 191.543
8.16436 -12.3278 191.526
8.2965698 -12.3261 191.5
8.4301701 -12.3266 191.507
8.5637598 -12.327 191.513
8.6964502 -12.3261 191.49899
8.8304596 -12.327 191.51401
8.96385 -12.3271 191.51601
9.09587 -12.3254 191.48801
9.2291498 -12.3253 191.48801
9.3635902 -12.3268 191.511
9.4983196 -12.3287 191.539
9.6344004 -12.3322 191.59399
9.7698402 -12.3348 191.634
9.9043798 -12.3362 191.65601
10.0407 -12.3398 191.71201
10.1778 -12.3442 191.78101
10.3156 -12.3493 191.86099
10.452 -12.3527 191.91299
10.5911 -12.3591 192.01199
10.7305 -12.3657 192.114
10.8659 -12.3675 192.14301
11.0028 -12.3711 192.19901
11.1403 -12.3752 192.26199
11.2753 -12.3765 192.282
11.4116 -12.3791 192.323
11.6834 -12.3834 192.38901
11.8193 -12.3854 192.422
11.954 -12.3862 192.433
12.0873 -12.3856 192.423
12.2212 -12.3854 192.422
12.3578 -12.3882 192.464
12.4938 -12.3902 192.495
12.6289 -12.3912 192.511
12.7654 -12.3936 192.548
12.9023 -12.3964 192.592
13.04 -12.3998 192.644
13.1782 -12.4037 192.705
13.3148 -12.406 192.741
13.4515 -12.4082 192.776
13.5876 -12.41 192.80299
13.7267 -12.4144 192.87199
13.8629 -12.4161 192.89799
14.0019 -12.4203 192.963
14.1394 -12.4231 193.007
14.2768 -12.4257 193.048
14.4142 -12.4284 193.089
14.5527 -12.4319 193.14301
14.6926 -12.4365 193.214
14.8332 -12.4416 193.293
14.971 -12.4442 193.33501
15.1073 -12.4457 193.35699
15.2481 -12.4507 193.436
15.3884 -12.4553 193.507
15.5304 -12.4611 193.597
15.6706 -12.4654 193.66499
15.8088 -12.4681 193.70599
15.952 -12.4747 193.808
16.0954 -12.4812 193.91
16.239901 -12.4885 194.02299
16.3818 -12.4938 194.105
16.5273 -12.5016 194.22701
16.6733 -12.5097 194.35201
16.8197 -12.5179 194.48
16.962299 -12.5233 194.563
17.1061 -12.5294 194.658
17.254499 -12.5388 194.804
17.3988 -12.545 194.901
17.546101 -12.5533 195.03
17.6926 -12.5609 195.14799
17.840099 -12.5691 195.27499
17.989799 -12.5788 195.425
18.135099 -12.5852 195.52499
18.2827 -12.5931 195.647
18.428101 -12.5994 195.746
18.577499 -12.6083 195.884
18.7213 -12.6133 195.96201
18.872999 -12.6235 196.121
19.0179 -12.6291 196.207
19.1663 -12.6369 196.328
19.317801 -12.6466 196.479
19.4655 -12.6537 196.589
19.616501 -12.6628 196.731
19.9184 -12.6806 197.007
20.069599 -12.6896 197.146
20.217199 -12.696 197.24699
20.3703 -12.7059 197.39999
20.519501 -12.7132 197.513
20.6696 -12.7209 197.634
20.822399 -12.7303 197.77901
21.130199 -12.7498 198.082
21.285 -12.76 198.24001
21.435699 -12.7675 198.35699
21.589701 -12.7769 198.50301
21.7512 -12.7906 198.716
21.9151 -12.8055 198.948
22.1045 -12.8351 199.408
22.3036 -12.8699 199.94901
22.494801 -12.8997 200.412
22.6903 -12.9316 200.907
22.8969 -12.9694 201.495
23.0895 -12.9989 201.952
23.2701 -13.0213 202.3
-5.0116301 -12.8154 201.28
-4.8648901 -12.798 201.006
-4.7178402 -12.7787 200.70399
-4.2812901 -12.727 199.892
-4.1364598 -12.7096 199.618
-3.9921701 -12.6927 199.35201
-3.8482499 -12.6757 199.086
-3.7047801 -12.6591 198.825
-3.5624001 -12.645 198.603
-3.42012 -12.6301 198.37
-3.2785499 -12.6168 198.16
-3.1372099 -12.6032 197.946
-2.9958999 -12.5884 197.715
-2.85502 -12.5741 197.49001
-2.7144699 -12.5599 197.267
-2.5741799 -12.5455 197.041
-2.43433 -12.5317 196.82401
-2.2945499 -12.5166 196.58701
-2.1553299 -12.5029 196.37199
-2.0162699 -12.4883 196.142
-1.878 -12.4769 195.963
-1.7396801 -12.4633 195.74899
-1.60199 -12.4522 195.575
-1.46491 -12.4443 195.451
-1.32797 -12.4361 195.323
-1.05468 -12.4203 195.07401
-0.91820103 -12.4111 194.92999
-0.78200799 -12.4033 194.808
-0.64595401 -12.3949 194.675
-0.51014298 -12.388 194.56599
-0.374448 -12.3798 194.437
-0.238994 -12.3748 194.35899
-0.103637 -12.3685 194.25999
0.031578001 -12.3611 194.144
0.16663399 -12.3538 194.03
0.30151999 -12.3461 193.909
0.43625799 -12.339 193.797
0.70569998 -12.3323 193.692
0.84004802 -12.3251 193.57899
0.97456998 -12.3221 193.532
1.1088099 -12.3166 193.446
1.2428499 -12.3105 193.349
1.3773201 -12.3093 193.33099
1.51176 -12.3081 193.311
1.6458 -12.3041 193.25
1.77976 -12.3002 193.187
1.9135799 -12.2959 193.12
2.0474801 -12.2927 193.069
2.1816499 -12.2913 193.048
2.3157401 -12.2897 193.02299
2.44928 -12.2855 192.957
2.5836401 -12.2857 192.96001
2.71732 -12.2827 192.914
2.85098 -12.28 192.871
2.98471 -12.2778 192.836
3.1185501 -12.2762 192.811
3.2521801 -12.274 192.776
3.3863201 -12.2737 192.772
3.52018 -12.2725 192.754
3.6536701 -12.2702 192.717
3.78807 -12.271 192.729
3.9217501 -12.2695 192.705
4.05549 -12.2682 192.685
4.1895599 -12.268 192.68201
4.3227 -12.2652 192.638
4.4548402 -12.2598 192.55299
4.5884299 -12.2586 192.534
4.7231102 -12.2602 192.56
4.8557701 -12.2567 192.505
4.98983 -12.2568 192.507
5.1236501 -12.2564 192.5
5.2561698 -12.2529 192.44501
5.5198698 -12.2435 192.297
5.64955 -12.2344 192.155
5.7796302 -12.2266 192.032
5.9104099 -12.2206 191.938
6.04035 -12.2132 191.821
6.1712799 -12.208 191.74001
6.30266 -12.204 191.67599
6.4340501 -12.2001 191.616
6.5665002 -12.1983 191.588
6.6988702 -12.1965 191.55901
6.8321099 -12.1963 191.556
6.96457 -12.1947 191.532
7.09723 -12.1936 191.513
7.2304602 -12.1934 191.511
7.3632798 -12.1926 191.498
7.4962802 -12.1921 191.49001
7.6314502 -12.1951 191.537
7.7659302 -12.1969 191.565
7.8987002 -12.196 191.55
8.0313301 -12.1949 191.533
8.1634903 -12.1931 191.506
8.2949495 -12.1904 191.463
8.4286699 -12.191 191.47301
8.5620403 -12.1911 191.47501
8.6946602 -12.1902 191.46001
8.82903 -12.1917 191.483
8.9626503 -12.1921 191.49001
9.2270803 -12.1892 191.44501
9.4963703 -12.1927 191.5
9.6325598 -12.1964 191.55701
9.7678699 -12.1988 191.59599
9.9029398 -12.2009 191.62801
10.039 -12.2041 191.679
10.1761 -12.2085 191.748
10.3137 -12.2134 191.825
10.4502 -12.2169 191.88
10.5892 -12.2232 191.978
10.7285 -12.2295 192.078
10.8641 -12.2317 192.112
11.0003 -12.2345 192.15601
11.1373 -12.2379 192.21001
11.2725 -12.2395 192.23399
11.4085 -12.2418 192.271
11.5441 -12.2437 192.3
11.6796 -12.2454 192.327
11.8151 -12.247 192.353
11.9497 -12.2478 192.36501
12.0831 -12.2473 192.35699
12.2176 -12.2479 192.366
12.3539 -12.2502 192.40199
12.4904 -12.2527 192.442
12.6255 -12.2538 192.459
12.7622 -12.2564 192.5
12.8991 -12.2591 192.543
13.0368 -12.2626 192.597
13.1739 -12.2655 192.642
13.3111 -12.2683 192.686
13.448 -12.2708 192.72701
13.5856 -12.2739 192.77499
13.7245 -12.2781 192.841
13.8608 -12.2799 192.87
13.9991 -12.2834 192.925
14.1372 -12.2868 192.97701
14.2757 -12.2903 193.033
14.4132 -12.293 193.075
14.5512 -12.2961 193.123
14.6916 -12.301 193.2
14.8322 -12.3061 193.28101
14.9691 -12.308 193.311
15.1062 -12.3101 193.343
15.2459 -12.3142 193.408
15.3873 -12.3197 193.493
15.5284 -12.3247 193.57201
15.6688 -12.3291 193.642
15.8076 -12.3323 193.69099
15.9493 -12.3376 193.77499
16.0916 -12.3432 193.864
16.236 -12.3504 193.97701
16.378099 -12.3558 194.061
16.524401 -12.3641 194.192
16.6702 -12.372 194.31599
16.816099 -12.3799 194.439
16.957899 -12.3846 194.513
17.1007 -12.3899 194.597
17.248699 -12.3989 194.73801
17.3923 -12.4046 194.828
17.5411 -12.414 194.97501
17.687 -12.4211 195.086
17.834801 -12.4294 195.218
17.983601 -12.4384 195.358
18.128901 -12.4448 195.45799
18.277399 -12.4532 195.591
18.4203 -12.4578 195.66299
18.570499 -12.4672 195.81
18.7131 -12.4714 195.87601
18.865601 -12.4821 196.04401
19.009899 -12.4872 196.125
19.1544 -12.4924 196.20599
19.3062 -12.5022 196.36
19.4552 -12.5102 196.485
19.6057 -12.5189 196.623
19.7554 -12.527 196.75
19.9097 -12.538 196.922
20.0592 -12.5457 197.043
20.205 -12.5511 197.12801
20.3542 -12.5585 197.244
20.506399 -12.5676 197.38699
20.656601 -12.5754 197.509
20.8099 -12.5849 197.659
20.9641 -12.5949 197.81599
21.117901 -12.6045 197.967
21.273701 -12.6151 198.134
21.427401 -12.6245 198.28101
21.5816 -12.6339 198.429
21.738899 -12.6451 198.605
21.903799 -12.6604 198.84599
22.0993 -12.6933 199.36099
22.3013 -12.7293 199.927
22.487 -12.7557 200.342
22.683201 -12.7877 200.84399
22.882799 -12.8212 201.371
23.261101 -12.8754 202.22099
23.4382 -12.8954 202.536
-5.0100698 -12.6713 201.217
-4.8631301 -12.6534 200.93401
-4.7161002 -12.6343 200.63
-4.5701499 -12.6169 200.354
-4.4244199 -12.5991 200.071
-4.1352401 -12.5669 199.55901
-3.99124 -12.5509 199.306
-3.8477299 -12.5354 199.05901
-3.70474 -12.5204 198.82201
-3.56248 -12.5069 198.608
-3.4202099 -12.4923 198.375
-3.2788 -12.4797 198.175
-3.13711 -12.4649 197.94
-2.9957399 -12.45 197.70399
-2.8548 -12.4356 197.47501
-2.71398 -12.4203 197.23199
-2.57353 -12.4051 196.991
-2.4335799 -12.3908 196.763
-2.2940099 -12.3768 196.541
-2.1547699 -12.3629 196.321
-2.0156701 -12.348 196.084
-1.8774101 -12.3365 195.901
-1.73932 -12.3244 195.709
-1.60172 -12.3139 195.543
-1.46453 -12.305 195.401
-1.32749 -12.2956 195.252
-1.1909 -12.2887 195.14301
-1.05433 -12.2803 195.009
-0.917898 -12.2713 194.866
-0.78179699 -12.2643 194.755
-0.64577198 -12.2559 194.621
-0.50995803 -12.248 194.496
-0.37432301 -12.2402 194.373
-0.10361 -12.2299 194.20799
0.031570598 -12.223 194.09801
0.30144799 -12.2081 193.86301
0.43617901 -12.2018 193.76199
0.57084501 -12.1971 193.687
0.70559299 -12.1955 193.66299
0.83992702 -12.1885 193.55099
0.97437203 -12.1848 193.492
1.10873 -12.181 193.43201
1.24272 -12.1745 193.32899
1.3772399 -12.1739 193.319
1.51162 -12.1723 193.29401
1.6456 -12.168 193.226
1.77944 -12.1634 193.15199
1.9132299 -12.1591 193.084
2.04704 -12.1555 193.02699
2.1812601 -12.1547 193.013
2.3153601 -12.1533 192.991
2.4489 -12.1492 192.927
2.5833399 -12.1499 192.937
2.7171099 -12.1474 192.899
2.8507099 -12.1445 192.853
2.98455 -12.1428 192.825
3.1183701 -12.1412 192.8
3.25207 -12.1393 192.769
3.3863399 -12.1396 192.774
3.5201099 -12.1381 192.75
3.65324 -12.1346 192.694
3.7873299 -12.1344 192.69099
3.9208801 -12.1326 192.66299
4.0545402 -12.1312 192.64
4.1886902 -12.1313 192.64301
4.3222198 -12.1297 192.617
4.4545202 -12.1248 192.539
4.5883498 -12.1242 192.53
4.7224798 -12.1245 192.535
4.85501 -12.1208 192.47501
4.9889398 -12.1206 192.47301
5.12252 -12.1196 192.457
5.2547698 -12.1157 192.394
5.38622 -12.1101 192.30499
5.5173898 -12.1041 192.211
5.6470599 -12.0953 192.07001
5.7782798 -12.09 191.987
5.9089098 -12.0839 191.88901
6.16961 -12.0712 191.688
6.3010898 -12.0675 191.629
6.4327402 -12.0642 191.576
6.56563 -12.0633 191.562
6.6979599 -12.0614 191.533
6.8317299 -12.0622 191.545
6.9638801 -12.0601 191.51199
7.0961299 -12.0583 191.48399
7.2297602 -12.0589 191.492
7.36268 -12.0582 191.48199
7.4956999 -12.0578 191.47501
7.6308799 -12.0608 191.522
7.7646098 -12.0614 191.532
7.8973498 -12.0605 191.51801
8.0304604 -12.0602 191.513
8.1623096 -12.058 191.478
8.2934599 -12.0549 191.429
8.4270296 -12.0553 191.436
8.56042 -12.0555 191.438
8.6930199 -12.0545 191.424
8.8275299 -12.0562 191.451
8.9609804 -12.0565 191.45399
9.0921803 -12.0537 191.41
9.22542 -12.0537 191.41
9.3601799 -12.0556 191.44099
9.4946899 -12.0572 191.466
9.6310501 -12.0611 191.52699
9.7658396 -12.0629 191.556
9.9014997 -12.0657 191.60001
10.0373 -12.0686 191.647
10.1736 -12.072 191.701
10.3112 -12.0768 191.77699
10.4481 -12.0808 191.84
10.5872 -12.0872 191.942
10.7255 -12.0924 192.02499
10.8614 -12.0949 192.064
10.9969 -12.0969 192.09599
11.1335 -12.1 192.146
11.2686 -12.1014 192.168
11.4042 -12.1033 192.198
11.5395 -12.1049 192.22301
11.6749 -12.1066 192.25
11.8105 -12.1084 192.27901
11.9456 -12.1096 192.298
12.0794 -12.1095 192.297
12.2147 -12.1109 192.319
12.3507 -12.113 192.35201
12.4875 -12.1159 192.39799
12.6233 -12.1176 192.42599
12.7601 -12.1203 192.468
12.8969 -12.123 192.511
13.0342 -12.126 192.55901
13.1718 -12.1293 192.61099
13.309 -12.1321 192.65601
13.4458 -12.1345 192.694
13.5836 -12.1378 192.746
13.722 -12.1416 192.806
13.8593 -12.1443 192.84801
13.9969 -12.1472 192.895
14.1354 -12.1508 192.952
14.274 -12.1544 193.00999
14.4115 -12.1571 193.05299
14.5498 -12.1603 193.103
14.6904 -12.1655 193.185
14.8294 -12.1692 193.244
14.9672 -12.1719 193.286
15.1053 -12.1747 193.332
15.245 -12.1788 193.396
15.3873 -12.1848 193.493
15.5272 -12.1889 193.55701
15.6677 -12.1934 193.629
15.8067 -12.1966 193.67999
15.9479 -12.2015 193.758
16.0905 -12.2074 193.851
16.233801 -12.2136 193.95
16.3748 -12.2181 194.021
16.521099 -12.2264 194.153
16.667299 -12.2345 194.28101
16.812 -12.2414 194.392
16.953899 -12.2462 194.467
17.096201 -12.2512 194.54601
17.242701 -12.259 194.67
17.386999 -12.2652 194.76801
17.535 -12.2739 194.907
17.6824 -12.282 195.036
17.8307 -12.2907 195.173
17.9781 -12.2985 195.298
18.1213 -12.3034 195.37601
18.270399 -12.3123 195.517
18.4126 -12.3163 195.58099
18.562799 -12.3257 195.729
18.8563 -12.3394 195.94701
19.000999 -12.3448 196.033
19.145399 -12.3499 196.114
19.2967 -12.3594 196.26401
19.4452 -12.3669 196.384
19.747 -12.3847 196.66701
19.898701 -12.3939 196.813
20.0478 -12.4014 196.93201
20.1947 -12.4074 197.02699
20.3435 -12.4145 197.14
20.4949 -12.4231 197.276
20.645399 -12.431 197.40199
20.8001 -12.4414 197.56599
20.954399 -12.4514 197.72501
21.1075 -12.4605 197.87
21.2631 -12.471 198.036
21.4172 -12.4804 198.186
21.571899 -12.4901 198.34
21.7306 -12.502 198.52901
21.8941 -12.5164 198.758
22.0917 -12.5501 199.29201
22.2901 -12.5837 199.827
22.4743 -12.609 200.229
22.6703 -12.6406 200.73
22.8689 -12.6732 201.248
23.068001 -12.7057 201.76401
-3.9896801 -12.4072 199.228
-3.8466599 -12.3933 199.004
-3.5619299 -12.3667 198.577
-3.4196401 -12.352 198.342
-3.2783401 -12.3399 198.147
-3.1366501 -12.3252 197.911
-2.9952199 -12.3102 197.66901
-2.7133701 -12.2802 197.187
-2.57304 -12.2656 196.953
-2.43293 -12.2505 196.711
-2.29337 -12.2365 196.48599
-2.1540599 -12.2221 196.256
-2.0151 -12.208 196.02901
-1.87679 -12.196 195.836
-1.73886 -12.1848 195.657
-1.60138 -12.1751 195.50101
-1.46407 -12.1651 195.34
-1.3270299 -12.1554 195.18401
-1.19046 -12.1484 195.071
-1.05396 -12.1403 194.942
-0.91755801 -12.1311 194.79401
-0.78150898 -12.1242 194.683
-0.64558601 -12.1168 194.565
-0.50979298 -12.1086 194.43201
-0.374226 -12.1017 194.32201
-0.23884 -12.0962 194.23399
-0.103574 -12.0905 194.14101
0.031560399 -12.0839 194.035
0.166563 -12.0784 193.948
0.30136901 -12.07 193.812
0.436093 -12.0644 193.724
0.57073498 -12.0598 193.649
0.70544702 -12.0582 193.623
0.83982903 -12.0523 193.528
0.97420901 -12.048 193.46001
1.1086299 -12.0453 193.41499
1.24264 -12.039 193.31599
1.37712 -12.0382 193.30299
1.51143 -12.0362 193.27
1.64539 -12.0319 193.201
1.77923 -12.0275 193.13
1.91309 -12.0237 193.07001
2.0467999 -12.0197 193.004
2.1809599 -12.0186 192.987
2.31496 -12.0168 192.95799
2.4484999 -12.0129 192.896
2.5829501 -12.0137 192.908
2.71668 -12.0112 192.868
2.85039 -12.0088 192.83099
2.98439 -12.0079 192.815
3.11816 -12.0061 192.787
3.2518599 -12.0042 192.756
3.3863699 -12.0054 192.77499
3.52005 -12.0036 192.74699
3.6530399 -11.9997 192.68401
3.7869101 -11.9988 192.67
3.9204199 -11.997 192.64
4.0538201 -11.9949 192.606
4.18786 -11.9947 192.604
4.3215199 -11.9936 192.586
4.45403 -11.9894 192.51801
4.5879898 -11.9892 192.51601
4.7220101 -11.9892 192.515
4.8544798 -11.9854 192.45399
4.9879298 -11.9841 192.43401
5.12113 -11.9823 192.405
5.38486 -11.9731 192.257
5.5153198 -11.9658 192.13901
5.645 -11.9571 192
5.7769899 -11.9537 191.94501
5.9075198 -11.9474 191.84399
6.0374699 -11.9403 191.73
6.1682 -11.935 191.645
6.2998199 -11.9316 191.59
6.43188 -11.9291 191.55099
6.5648398 -11.9284 191.539
6.6967702 -11.9259 191.49899
6.8305502 -11.9267 191.51199
6.9630399 -11.9253 191.489
7.0954599 -11.9238 191.465
7.2292199 -11.9246 191.478
7.3622799 -11.9242 191.472
7.4955301 -11.9241 191.47099
7.6305099 -11.9268 191.513
7.7634602 -11.9262 191.504
7.8959398 -11.925 191.48399
8.0290203 -11.9246 191.478
8.1607504 -11.9223 191.442
8.2923203 -11.9199 191.40199
8.4253397 -11.9196 191.397
8.5588903 -11.92 191.40401
8.6907701 -11.9181 191.37399
8.9588003 -11.9202 191.408
9.0904799 -11.9182 191.375
9.2242298 -11.9188 191.386
9.3587704 -11.9205 191.412
9.4931803 -11.922 191.436
9.7641296 -11.9274 191.522
9.8999701 -11.9304 191.571
10.0362 -11.9338 191.62601
10.1717 -11.9362 191.66499
10.3089 -11.9407 191.73599
10.4457 -11.9445 191.797
10.5845 -11.9504 191.892
10.7217 -11.9544 191.95599
10.8579 -11.9572 192.002
10.9929 -11.9586 192.02499
11.1292 -11.9616 192.071
11.2644 -11.9631 192.09599
11.3996 -11.9646 192.121
11.5352 -11.9666 192.15199
11.6704 -11.968 192.175
11.806 -11.9698 192.205
11.9414 -11.9715 192.231
12.0763 -11.9725 192.24699
12.2124 -11.9748 192.284
12.3486 -11.977 192.32001
12.4853 -11.9797 192.36301
12.6218 -11.9822 192.403
12.759 -11.9853 192.452
12.8962 -11.9882 192.5
13.0331 -11.9909 192.54201
13.1713 -11.9947 192.604
13.3081 -11.9971 192.64301
13.4444 -11.9991 192.675
13.5825 -12.0026 192.731
13.7209 -12.0063 192.791
13.8594 -12.0101 192.851
13.9954 -12.0115 192.873
14.1342 -12.0154 192.935
14.273 -12.0192 192.99699
14.4107 -12.0219 193.041
14.5486 -12.0249 193.088
14.6892 -12.0299 193.17
14.8273 -12.0329 193.216
14.9669 -12.037 193.283
15.1048 -12.0396 193.325
15.2443 -12.0435 193.38699
15.3863 -12.0493 193.48
15.5264 -12.0535 193.547
15.6676 -12.0585 193.62801
15.8061 -12.0613 193.673
15.9479 -12.0666 193.758
16.0909 -12.0727 193.856
16.2335 -12.0783 193.94701
16.3738 -12.0822 194.009
16.518801 -12.0895 194.12601
16.6646 -12.0973 194.25101
16.808399 -12.1034 194.349
16.9505 -12.1083 194.427
17.0924 -12.1129 194.502
17.2356 -12.1184 194.59
17.3808 -12.1252 194.69901
17.525499 -12.1316 194.80099
17.674801 -12.1409 194.952
17.8244 -12.1504 195.104
17.9743 -12.1599 195.257
18.116501 -12.1642 195.325
18.263 -12.1712 195.437
18.406 -12.1757 195.50999
18.5546 -12.184 195.64301
18.6994 -12.1896 195.733
18.847 -12.1969 195.85001
18.994801 -12.2042 195.968
19.137899 -12.2085 196.03799
19.434999 -12.2237 196.282
19.5853 -12.2322 196.418
19.7363 -12.2411 196.56
19.886 -12.249 196.688
20.0361 -12.2571 196.817
20.184601 -12.2641 196.929
20.332199 -12.2704 197.03101
20.4846 -12.2795 197.177
20.633499 -12.2864 197.28799
20.788601 -12.297 197.457
20.942101 -12.3064 197.60899
21.0956 -12.3157 197.758
21.250299 -12.3256 197.916
21.406 -12.3359 198.082
21.560499 -12.3454 198.235
21.7164 -12.3556 198.39799
21.881901 -12.3711 198.647
22.0737 -12.4011 199.13
22.4592 -12.4612 200.095
22.653 -12.4913 200.577
22.847099 -12.5211 201.056
23.053801 -12.5574 201.64
23.257401 -12.5917 202.189
-3.9876201 -12.2621 199.125
-3.84496 -12.2492 198.916
-3.70281 -12.2371 198.718
-3.5608101 -12.2245 198.515
-3.4186101 -12.2102 198.282
-3.1359601 -12.1846 197.867
-2.99459 -12.1699 197.62801
-2.85373 -12.156 197.401
-2.7127299 -12.1399 197.14101
-2.5725801 -12.1262 196.918
-2.4323101 -12.1104 196.661
-2.2927201 -12.0962 196.431
-2.15342 -12.0819 196.198
-2.01472 -12.0692 195.992
-1.87634 -12.0567 195.78999
-1.73839 -12.0453 195.603
-1.60102 -12.0362 195.457
-1.4637001 -12.026 195.28999
-1.32675 -12.0169 195.14301
-1.1901799 -12.0097 195.02499
-1.05375 -12.0021 194.903
-0.91733301 -11.9925 194.746
-0.78127903 -11.9851 194.62601
-0.645401 -11.9779 194.509
-0.50965101 -11.9698 194.379
-0.37416601 -11.9645 194.291
-0.238796 -11.9588 194.198
-0.103555 -11.953 194.105
0.031555898 -11.947 194.008
0.166546 -11.9421 193.92799
0.301337 -11.9337 193.791
0.57064497 -11.9231 193.619
0.70532697 -11.9213 193.59
0.83971202 -11.9158 193.502
1.10848 -11.9089 193.38901
1.24247 -11.9028 193.28999
1.377 -11.9026 193.286
1.51129 -11.9004 193.25101
1.6453 -11.8967 193.19099
1.77909 -11.892 193.11501
1.91298 -11.8886 193.06
2.0466599 -11.8844 192.992
2.1807201 -11.8829 192.966
2.3146501 -11.8808 192.93201
2.4482501 -11.8773 192.877
2.58266 -11.878 192.88699
2.71627 -11.875 192.839
2.85005 -11.8731 192.808
2.9841001 -11.8724 192.79601
3.1178801 -11.8708 192.77
3.25141 -11.8683 192.73
3.3859501 -11.8696 192.75101
3.51967 -11.8681 192.726
3.65272 -11.8644 192.66701
3.7863801 -11.863 192.64301
3.91993 -11.8613 192.616
4.0532699 -11.8591 192.58
4.1869001 -11.8579 192.56
4.4530902 -11.8528 192.478
4.58706 -11.8527 192.47701
4.7213702 -11.8535 192.489
4.85394 -11.85 192.433
4.9870801 -11.8481 192.401
5.1198902 -11.8454 192.35899
5.25173 -11.8408 192.282
5.3836899 -11.8366 192.215
5.5139298 -11.829 192.091
5.6440201 -11.8213 191.967
5.7757001 -11.8173 191.90199
5.9061999 -11.8111 191.80099
6.0368299 -11.8055 191.71001
6.1673002 -11.7998 191.617
6.2990999 -11.7968 191.56799
6.4312601 -11.7946 191.532
6.5641398 -11.7938 191.519
6.6961699 -11.7915 191.48199
6.8299198 -11.7923 191.495
6.9629302 -11.7917 191.48599
7.0956702 -11.7908 191.47099
7.2292299 -11.7913 191.478
7.36204 -11.7905 191.466
7.49581 -11.7912 191.478
7.6303601 -11.7932 191.509
7.7622299 -11.791 191.474
7.8943801 -11.7892 191.446
8.0276403 -11.7892 191.44501
8.1591396 -11.7867 191.40401
8.2910299 -11.7847 191.373
8.4236202 -11.7838 191.358
8.5566902 -11.7836 191.355
8.6882896 -11.7815 191.319
8.8233299 -11.7839 191.35899
8.9569597 -11.7845 191.368
9.0891199 -11.7831 191.34599
9.2230301 -11.784 191.36099
9.3575602 -11.7857 191.388
9.4918299 -11.787 191.409
9.6279802 -11.7905 191.466
9.7628603 -11.7924 191.49699
9.8984404 -11.7951 191.541
10.0354 -11.7993 191.61
10.1703 -11.8011 191.63901
10.3072 -11.8051 191.70399
10.4434 -11.8083 191.754
10.5814 -11.8133 191.836
10.7179 -11.8166 191.88901
10.8539 -11.8191 191.931
10.9884 -11.8201 191.94701
11.1252 -11.8235 192.00301
11.2607 -11.8254 192.033
11.3962 -11.8273 192.064
11.532 -11.8295 192.099
11.6664 -11.8302 192.11
11.8021 -11.8321 192.142
11.9382 -11.8345 192.17999
12.074 -11.8364 192.21201
12.2105 -11.839 192.254
12.347 -11.8416 192.29601
12.484 -11.8445 192.343
12.6213 -11.8477 192.395
12.7596 -11.8518 192.461
12.897 -11.8549 192.51199
13.0338 -11.8574 192.55299
13.1709 -11.8602 192.599
13.3068 -11.8618 192.62399
13.4432 -11.8639 192.658
13.5828 -11.8687 192.735
13.7213 -11.8723 192.795
13.86 -11.8762 192.858
13.9944 -11.8763 192.86
14.1333 -11.8802 192.924
14.2727 -11.8845 192.993
14.4101 -11.887 193.033
14.5474 -11.8894 193.07201
14.687 -11.8936 193.14101
14.8265 -11.8977 193.20599
14.9663 -11.9019 193.27499
15.1041 -11.9045 193.317
15.2436 -11.9083 193.379
15.3855 -11.9139 193.47
15.5257 -11.9182 193.539
15.8062 -11.9265 193.675
15.9479 -11.9316 193.757
16.0903 -11.9372 193.84801
16.233101 -11.943 193.942
16.3743 -11.9475 194.015
16.516701 -11.9528 194.101
16.660601 -11.959 194.203
16.803801 -11.9648 194.297
16.9461 -11.9697 194.377
17.0884 -11.9746 194.45599
17.2292 -11.9784 194.51801
17.3752 -11.9857 194.636
17.518 -11.9907 194.718
17.667299 -12.0001 194.87
17.818199 -12.0104 195.036
17.9694 -12.0207 195.20399
18.113199 -12.0259 195.28799
18.255899 -12.0304 195.36099
18.4025 -12.0373 195.474
18.5474 -12.043 195.56599
18.691999 -12.0485 195.65601
18.8402 -12.0561 195.78
18.9874 -12.0631 195.89301
19.131201 -12.0677 195.968
19.277 -12.0737 196.064
19.4259 -12.0814 196.19
19.5777 -12.0907 196.341
19.7262 -12.098 196.46001
19.875 -12.1053 196.57899
20.022699 -12.1119 196.686
20.171301 -12.1189 196.799
20.3179 -12.1246 196.892
20.469601 -12.1333 197.033
20.7768 -12.1525 197.345
20.9293 -12.1613 197.48801
21.081699 -12.1699 197.627
21.237801 -12.1805 197.8
21.3951 -12.1917 197.98199
21.5508 -12.2019 198.146
21.707199 -12.2122 198.314
21.867201 -12.2245 198.51401
22.0515 -12.2501 198.92999
22.251801 -12.2842 199.48399
22.446301 -12.3147 199.979
22.638201 -12.3435 200.446
22.8291 -12.3713 200.89799
23.0271 -12.4026 201.407
23.2439 -12.4436 202.07201
-3.5597799 -12.0828 198.457
-3.41766 -12.0688 198.22701
-3.2771499 -12.0595 198.075
-3.1352899 -12.0443 197.825
-2.9939899 -12.0299 197.588
-2.8531101 -12.0159 197.358
-2.57184 -11.9856 196.862
-2.43174 -11.9706 196.61501
-2.2923701 -11.9575 196.39999
-2.1530399 -11.9431 196.16299
-2.0144 -11.9308 195.96001
-1.87604 -11.9185 195.758
-1.73814 -11.9073 195.575
-1.60067 -11.8975 195.414
-1.46338 -11.8874 195.248
-1.32648 -11.8786 195.104
-1.1899199 -11.8713 194.983
-1.0536 -11.8646 194.87399
-0.91726202 -11.8559 194.731
-0.78121698 -11.8486 194.61099
-0.64531702 -11.8409 194.48399
-0.50958198 -11.8329 194.35201
-0.37412399 -11.8278 194.269
-0.238773 -11.8223 194.17999
-0.103537 -11.8157 194.071
0.16651499 -11.8048 193.892
0.30128899 -11.7968 193.761
0.43595499 -11.7908 193.662
0.57060802 -11.7874 193.606
0.70527703 -11.7856 193.576
0.83967 -11.7805 193.492
0.973885 -11.7746 193.396
1.1083601 -11.7729 193.368
1.24242 -11.7677 193.282
1.37685 -11.7667 193.265
1.51105 -11.764 193.22099
1.64509 -11.7606 193.166
1.7789299 -11.7564 193.097
1.91281 -11.7531 193.04201
2.0465701 -11.7495 192.983
2.1805699 -11.7476 192.952
2.31442 -11.7452 192.91299
2.44804 -11.742 192.86
2.58248 -11.7428 192.873
2.71609 -11.7399 192.826
2.8498099 -11.7378 192.791
2.98386 -11.7372 192.78101
3.11777 -11.7361 192.763
3.2511001 -11.733 192.71201
3.3854301 -11.7336 192.722
3.5190799 -11.7319 192.694
3.6521699 -11.7285 192.638
3.7855401 -11.7262 192.601
3.91905 -11.7245 192.573
4.0523701 -11.7224 192.537
4.3196902 -11.7203 192.504
4.4521999 -11.7164 192.439
4.58638 -11.7169 192.448
4.72086 -11.7182 192.46899
4.8533101 -11.7145 192.408
4.98634 -11.7123 192.37199
5.1194601 -11.7105 192.342
5.2507801 -11.7047 192.248
5.3827801 -11.7007 192.18201
5.5124698 -11.692 192.039
5.6431999 -11.6859 191.939
5.7747598 -11.6818 191.871
5.9053702 -11.6759 191.774
6.03618 -11.6707 191.689
6.1668701 -11.6655 191.603
6.2985001 -11.6622 191.55
6.4308 -11.6603 191.519
6.56358 -11.6594 191.50301
6.6960201 -11.6578 191.478
6.8297601 -11.6586 191.49001
6.9630499 -11.6586 191.49001
7.0964799 -11.6588 191.493
7.2294202 -11.6582 191.483
7.3617301 -11.6566 191.45799
7.4953699 -11.6572 191.467
7.62921 -11.658 191.48
7.7607002 -11.6553 191.436
7.8923502 -11.6529 191.397
8.0258999 -11.6534 191.40401
8.1575603 -11.6511 191.367
8.2891102 -11.6487 191.328
8.4219599 -11.6483 191.32001
8.5547504 -11.6477 191.311
8.6866302 -11.646 191.283
8.8221302 -11.6491 191.334
8.9558802 -11.6498 191.345
9.0880499 -11.6485 191.32401
9.22258 -11.6501 191.351
9.3573599 -11.6521 191.383
9.4914398 -11.6531 191.401
9.62714 -11.6561 191.44901
9.7621899 -11.6582 191.48399
9.8973598 -11.6604 191.52
10.0343 -11.6646 191.589
10.169 -11.6662 191.61501
10.3052 -11.6693 191.666
10.4409 -11.6718 191.707
10.578 -11.6759 191.774
10.714 -11.6786 191.81799
10.85 -11.6813 191.86301
10.9849 -11.6827 191.886
11.1217 -11.6861 191.942
11.2569 -11.6877 191.968
11.3926 -11.6898 192.002
11.5289 -11.6925 192.047
11.6633 -11.6932 192.05901
11.7995 -11.6956 192.099
11.9361 -11.6985 192.146
12.0728 -11.7013 192.192
12.2094 -11.704 192.23599
12.3468 -11.7074 192.291
12.4844 -11.7109 192.35001
12.6222 -11.7145 192.409
12.761 -11.719 192.48199
12.8983 -11.722 192.532
13.035 -11.7244 192.571
13.1711 -11.7262 192.601
13.3064 -11.7273 192.619
13.4432 -11.7297 192.657
13.583 -11.7346 192.73801
13.7207 -11.7376 192.78799
13.8585 -11.7406 192.83701
13.994 -11.7417 192.855
14.133 -11.7456 192.91901
14.2726 -11.75 192.991
14.4105 -11.7529 193.039
14.5478 -11.7552 193.077
14.6871 -11.7592 193.142
14.827 -11.7635 193.213
14.966 -11.767 193.27
15.1038 -11.7695 193.312
15.243 -11.7731 193.37
15.3858 -11.7793 193.47301
15.5265 -11.7839 193.549
15.6672 -11.7884 193.62199
15.8066 -11.7918 193.67799
15.9483 -11.7969 193.76199
16.0896 -11.8017 193.84
16.2318 -11.8069 193.927
16.512501 -11.8146 194.052
16.6558 -11.8204 194.14799
16.798401 -11.8257 194.23399
16.939199 -11.8296 194.298
17.0814 -11.8344 194.377
17.2232 -11.8388 194.451
17.3694 -11.8462 194.571
17.512199 -11.8511 194.653
17.6584 -11.8584 194.771
17.8083 -11.8679 194.927
17.9582 -11.8773 195.082
18.105 -11.8845 195.201
18.248899 -11.8897 195.286
18.3955 -11.8966 195.399
18.5446 -11.905 195.537
18.6884 -11.9099 195.618
18.835899 -11.917 195.735
18.9809 -11.9225 195.825
19.1243 -11.927 195.89799
19.2691 -11.9322 195.98399
19.4191 -11.9405 196.121
19.565901 -11.9468 196.22301
19.718901 -11.9567 196.38699
20.009199 -11.9668 196.55299
20.160601 -11.9755 196.69501
20.3062 -11.9806 196.77901
20.4573 -11.9888 196.914
20.611099 -11.9986 197.07401
20.764999 -12.0082 197.233
20.9181 -12.0173 197.382
21.069599 -12.0254 197.51401
21.225401 -12.0358 197.685
21.382999 -12.047 197.87
21.5375 -12.0564 198.024
21.693899 -12.0667 198.194
21.8542 -12.079 198.396
22.0214 -12.095 198.658
22.215 -12.1252 199.15401
22.4179 -12.1601 199.72701
22.6117 -12.1896 200.211
23.005899 -12.251 201.22099
23.2209 -12.2907 201.87199
-3.4170301 -11.9285 198.19
-3.2764299 -11.9189 198.03101
-3.1347599 -11.9045 197.79201
-2.9935501 -11.8905 197.55901
-2.85237 -11.8753 197.306
-2.7116899 -11.8608 197.065
-2.5711801 -11.8455 196.811
-2.4312401 -11.8312 196.57401
-2.29196 -11.8186 196.36501
-2.1526 -11.804 196.123
-2.0139699 -11.7918 195.91901
-1.87577 -11.7804 195.73
-1.73798 -11.77 195.558
-1.60039 -11.7594 195.38
-1.4632 -11.7499 195.224
-1.32627 -11.7408 195.07201
-1.18972 -11.7334 194.94901
-1.0534199 -11.7269 194.841
-0.91715598 -11.7189 194.70799
-0.78110498 -11.7114 194.58299
-0.64523798 -11.704 194.46001
-0.50955802 -11.6969 194.343
-0.37405899 -11.6904 194.235
-0.238757 -11.6863 194.16701
-0.103526 -11.6794 194.052
0.031546898 -11.6734 193.952
0.1665 -11.6687 193.87399
0.30127099 -11.6612 193.74899
0.43591401 -11.6549 193.644
0.57055199 -11.6514 193.58701
0.70522398 -11.6499 193.562
0.83959103 -11.6446 193.474
0.97377598 -11.6386 193.37399
1.10826 -11.6372 193.35001
1.24236 -11.6325 193.27299
1.3767 -11.6307 193.243
1.51079 -11.6274 193.187
1.64482 -11.6242 193.13499
1.77882 -11.6212 193.08501
1.9126 -11.6174 193.021
2.04655 -11.615 192.981
2.1805401 -11.6131 192.95
2.31429 -11.6102 192.90199
2.44789 -11.6069 192.84801
2.58217 -11.6071 192.85001
2.71596 -11.6051 192.817
2.8494201 -11.6019 192.765
2.98352 -11.6016 192.759
3.1175499 -11.601 192.74899
3.2508399 -11.5978 192.696
3.38486 -11.5974 192.689
3.51842 -11.5955 192.657
3.6519201 -11.5935 192.62399
3.7850299 -11.5905 192.57401
3.9184201 -11.5885 192.541
4.1854401 -11.5856 192.493
4.31884 -11.584 192.466
4.4513202 -11.58 192.401
4.5854998 -11.5806 192.411
4.7199798 -11.582 192.433
4.8524499 -11.5784 192.373
4.98559 -11.5766 192.34399
5.11905 -11.5756 192.327
5.2498002 -11.5687 192.21201
5.38204 -11.5653 192.15601
5.5111899 -11.5556 191.995
5.6422601 -11.5503 191.907
5.7741299 -11.5469 191.85001
5.90488 -11.5414 191.759
6.0356898 -11.5362 191.673
6.1668 -11.5319 191.601
6.2982502 -11.5284 191.54201
6.4305501 -11.5265 191.511
6.5633502 -11.5256 191.496
6.69561 -11.5238 191.466
6.8295798 -11.5249 191.485
6.96311 -11.5253 191.491
7.0971298 -11.5265 191.511
7.2297602 -11.5254 191.492
7.3618102 -11.5234 191.46001
7.4947801 -11.5229 191.452
7.6272998 -11.5217 191.43201
7.7590899 -11.5196 191.396
7.8905301 -11.5169 191.35201
8.0239897 -11.5173 191.358
8.1564903 -11.5163 191.342
8.2874403 -11.5132 191.28999
8.42066 -11.5132 191.291
8.5538998 -11.5133 191.29201
8.6861496 -11.5121 191.272
8.8215799 -11.5151 191.32201
8.95506 -11.5155 191.328
9.0874796 -11.5145 191.312
9.2231903 -11.5176 191.364
9.3580599 -11.5197 191.39799
9.4913702 -11.5197 191.399
9.6270905 -11.5227 191.448
9.7620697 -11.5247 191.48199
9.8971901 -11.5268 191.517
10.0331 -11.5298 191.56599
10.1677 -11.5312 191.59
10.3033 -11.5337 191.631
10.4383 -11.5354 191.66
10.5749 -11.5389 191.717
10.7099 -11.5406 191.746
10.8457 -11.543 191.786
10.9812 -11.5452 191.82201
11.1177 -11.5483 191.873
11.2537 -11.5507 191.91299
11.3891 -11.5526 191.94501
11.525 -11.5548 191.98199
11.6603 -11.5564 192.009
11.7972 -11.5596 192.061
11.9341 -11.5627 192.11301
12.0714 -11.5661 192.17
12.2088 -11.5696 192.22701
12.348 -11.5747 192.312
12.486 -11.5784 192.37399
12.7624 -11.5862 192.504
12.8998 -11.5892 192.554
13.0361 -11.5913 192.588
13.1722 -11.593 192.617
13.3081 -11.5946 192.64301
13.4447 -11.5967 192.679
13.5827 -11.6001 192.73399
13.7197 -11.6025 192.774
13.8571 -11.6051 192.81799
13.9949 -11.6081 192.867
14.1338 -11.6119 192.92999
14.2732 -11.6161 193
14.4118 -11.6195 193.056
14.5497 -11.6223 193.103
14.6891 -11.6262 193.168
14.8279 -11.6296 193.224
14.9664 -11.6327 193.27499
15.1043 -11.6352 193.31799
15.2432 -11.6386 193.373
15.3864 -11.6451 193.481
15.5268 -11.6494 193.55299
15.6667 -11.6532 193.616
15.8061 -11.6566 193.673
15.9476 -11.6615 193.754
16.0884 -11.6658 193.825
16.2302 -11.6707 193.908
16.3687 -11.6732 193.94901
16.5084 -11.6765 194.004
16.652 -11.6825 194.103
16.7939 -11.6872 194.181
16.9338 -11.6905 194.23599
17.076 -11.6953 194.315
17.217699 -11.6996 194.388
17.3643 -11.7073 194.515
17.506701 -11.7119 194.592
17.652399 -11.7187 194.705
17.796301 -11.7242 194.797
17.941099 -11.7302 194.896
18.089001 -11.7381 195.028
18.238199 -11.7468 195.17101
18.387199 -11.7552 195.312
18.5394 -11.7655 195.483
18.6814 -11.7693 195.545
18.8298 -11.7769 195.672
18.974899 -11.7824 195.76401
19.116699 -11.7858 195.82001
19.261 -11.7907 195.901
19.407801 -11.7971 196.007
19.553699 -11.8028 196.101
19.705601 -11.8119 196.254
19.8472 -11.815 196.304
19.996401 -11.8224 196.427
20.149599 -11.832 196.58701
20.2967 -11.838 196.687
20.4454 -11.8448 196.8
20.597601 -11.8536 196.94501
20.751301 -11.863 197.103
20.906799 -11.8734 197.276
21.059401 -11.8821 197.41901
21.2106 -11.8898 197.547
21.368999 -11.9014 197.74001
21.527 -11.9126 197.927
21.682899 -11.9226 198.093
21.8395 -11.9328 198.263
22.002199 -11.9462 198.485
22.181801 -11.9686 198.856
22.375 -11.9979 199.34399
22.580601 -12.0335 199.936
22.774 -12.0623 200.41299
22.9702 -12.0921 200.909
23.187599 -12.1327 201.58299
-3.4166501 -11.7891 198.168
-3.2760401 -11.7796 198.008
-3.13449 -11.7657 197.774
-2.9931099 -11.7512 197.53
-2.8518901 -11.7359 197.27299
-2.71119 -11.7213 197.02901
-2.5708799 -11.707 196.78799
-2.4309001 -11.6927 196.547
-2.2914701 -11.6793 196.323
-2.1521101 -11.6648 196.078
-2.01372 -11.6539 195.894
-1.87549 -11.6424 195.701
-1.7377 -11.6319 195.526
-1.60022 -11.622 195.36
-1.46304 -11.6127 195.202
-1.3261 -11.6034 195.047
-1.1896 -11.5965 194.92999
-1.05327 -11.5896 194.814
-0.91705102 -11.582 194.686
-0.78100502 -11.5743 194.558
-0.64514703 -11.5669 194.433
-0.50946897 -11.5595 194.30901
-0.373992 -11.5531 194.201
-0.238728 -11.5497 194.14301
-0.103519 -11.5434 194.037
0.031544399 -11.5374 193.937
0.166475 -11.5319 193.845
0.30124399 -11.5252 193.73199
0.43585801 -11.5185 193.619
0.57049298 -11.5154 193.567
0.705118 -11.5133 193.533
0.83944798 -11.5079 193.44099
0.97367603 -11.5027 193.354
1.10813 -11.5012 193.328
1.24203 -11.4949 193.222
1.37651 -11.4946 193.218
1.5106601 -11.4918 193.17101
1.64475 -11.4891 193.12601
1.77861 -11.4854 193.062
1.91239 -11.4816 192.99899
2.04633 -11.4793 192.961
2.18033 -11.4776 192.931
2.31408 -11.4748 192.88499
2.4477301 -11.4718 192.83501
2.5819399 -11.4717 192.83299
2.7158401 -11.4703 192.80901
2.84921 -11.4668 192.75101
2.98329 -11.4664 192.744
3.1171801 -11.4654 192.726
3.25035 -11.4619 192.66701
3.3844199 -11.4617 192.664
3.51775 -11.4591 192.621
3.6512699 -11.4573 192.59
3.78438 -11.4544 192.541
3.9177599 -11.4524 192.509
4.0507202 -11.4495 192.459
4.18472 -11.4495 192.46001
4.3179998 -11.4477 192.429
4.45083 -11.4448 192.38
4.5846601 -11.4445 192.37601
4.7190199 -11.4456 192.394
4.8516302 -11.4425 192.341
