# .PCD v0.7 - Point Cloud Data file format
VERSION 0.7
FIELDS x y z
SIZE 4 4 4
TYPE F F F
COUNT 1 1 1
WIDTH 1712
HEIGHT 1
VIEWPOINT 0 0 0 1 0 0 0
POINTS 1712
DATA ascii
15.3329 -3.7136199 194.51199
15.4708 -3.7142 194.543
15.6085 -3.7147501 194.571
15.7467 -3.7154 194.605
15.8863 -3.7163601 194.65601
16.0289 -3.7180099 194.742
16.170799 -3.71946 194.81799
16.3118 -3.72069 194.882
16.452499 -3.7218201 194.942
16.5886 -3.72191 194.94701
16.7292 -3.72299 195.00301
16.870501 -3.7242301 195.06799
17.0135 -3.7258101 195.151
17.1549 -3.727 195.213
17.2959 -3.7281001 195.271
17.438499 -3.7295401 195.34599
17.5793 -3.7305501 195.399
17.7274 -3.7330999 195.532
17.870701 -3.7346001 195.61099
18.0154 -3.7363701 195.70399
18.159599 -3.7379999 195.789
18.304899 -3.73984 195.88499
18.4475 -3.7411001 195.952
18.591101 -3.7425599 196.028
18.733101 -3.74366 196.086
18.882601 -3.7462399 196.22099
19.0319 -3.7487299 196.351
19.178301 -3.7506399 196.451
19.3263 -3.75281 196.565
19.4755 -3.7552099 196.69
19.630199 -3.75861 196.869
19.777 -3.7604699 196.966
19.925301 -3.7625799 197.077
20.0788 -3.76563 197.23599
20.23 -3.7682099 197.37199
20.3797 -3.7704899 197.491
20.5324 -3.7732899 197.63699
20.688 -3.7765701 197.80901
20.8391 -3.7790101 197.937
20.995001 -3.78227 198.108
21.1479 -3.78494 198.248
21.3064 -3.78859 198.439
21.461901 -3.7916601 198.60001
21.626499 -3.7962899 198.842
21.818701 -3.80566 199.33299
22.0264 -3.81761 199.959
22.198601 -3.8232901 200.257
22.3647 -3.8278601 200.496
22.5487 -3.8354299 200.892
22.76 -3.8474901 201.524
23.0509 -3.8728001 202.85001
23.2321 -3.8794701 203.19901
-6.3653998 -3.67524 199.791
-6.22544 -3.67472 199.763
-6.0864601 -3.6747799 199.76601
-5.9471798 -3.6746399 199.758
-5.80861 -3.6749599 199.77499
-5.66991 -3.6752 199.78799
-5.53016 -3.6747501 199.76401
-5.3922501 -3.67554 199.80701
-5.25282 -3.6753099 199.795
-5.1143799 -3.67577 199.82001
-4.97611 -3.6763899 199.853
-4.8372998 -3.67663 199.867
-4.6977901 -3.6763401 199.851
-4.5601101 -3.67751 199.914
-4.4201102 -3.67682 199.877
-4.2804198 -3.6763501 199.851
-4.1388202 -3.67416 199.73199
-3.9953499 -3.67009 199.511
-3.8511801 -3.6650701 199.23801
-3.41348 -3.64202 197.985
-3.2718999 -3.63784 197.758
-3.13358 -3.63709 197.717
-2.99192 -3.63221 197.451
-2.8512499 -3.6281199 197.229
-2.7102499 -3.6231699 196.96001
-2.5697999 -3.61847 196.705
-2.4307799 -3.61538 196.537
-2.15504 -3.6118701 196.34599
-2.0176001 -3.6105199 196.272
-1.8791699 -3.60706 196.084
-1.60368 -3.60149 195.782
-1.46663 -3.5996301 195.67999
-1.32942 -3.5969601 195.535
-1.19239 -3.5942299 195.38699
-1.05527 -3.5904901 195.18401
-0.78214598 -3.5842099 194.842
-0.64600301 -3.5814199 194.69
-0.51015401 -3.57921 194.57001
-0.37455601 -3.57779 194.494
-0.23903801 -3.5759799 194.395
-0.103641 -3.5736101 194.26601
0.031589899 -3.57271 194.217
0.16669799 -3.5706401 194.105
0.30182299 -3.5706201 194.104
0.43693799 -3.57054 194.099
0.571859 -3.5692799 194.03101
0.70655799 -3.56738 193.92799
0.841335 -3.5664301 193.87601
0.97594398 -3.56512 193.80499
1.1107 -3.56462 193.77699
1.24546 -3.5641899 193.754
1.38002 -3.56338 193.71001
1.5147001 -3.5629799 193.688
1.6490999 -3.5620301 193.63699
1.78327 -3.56078 193.569
1.9180501 -3.5608301 193.571
2.05302 -3.5611999 193.591
2.1871099 -3.5601001 193.53101
2.32163 -3.5597799 193.51401
2.45629 -3.55969 193.509
2.5906401 -3.55919 193.48199
2.72507 -3.55885 193.464
2.85936 -3.5583701 193.438
2.9932699 -3.5574701 193.38901
3.1277101 -3.55726 193.377
3.2623401 -3.5572701 193.37801
3.3961899 -3.5564599 193.334
3.53093 -3.5566199 193.342
3.6649101 -3.55602 193.31
3.7983201 -3.55493 193.25101
3.93363 -3.55563 193.289
4.0676799 -3.5551901 193.26401
4.2008801 -3.55405 193.203
4.33459 -3.5534 193.168
4.46872 -3.5531399 193.153
4.6016302 -3.55193 193.088
4.7343202 -3.5506401 193.01801
4.8666 -3.5491099 192.93401
4.9993701 -3.5480199 192.875
5.1322999 -3.5470901 192.825
5.2651601 -3.54617 192.77499
5.4006 -3.5469799 192.819
5.5353298 -3.5473001 192.836
5.6696901 -3.54737 192.84
5.8039198 -3.54737 192.839
5.9370198 -3.54668 192.802
6.0710201 -3.54655 192.795
6.2053099 -3.5466001 192.798
6.3413801 -3.5476401 192.854
6.4760299 -3.5478499 192.866
6.6113701 -3.54843 192.897
6.7451501 -3.5481601 192.883
6.87958 -3.5482399 192.88699
7.0135598 -3.54809 192.879
7.1483202 -3.5483301 192.892
7.28405 -3.5490401 192.92999
7.41921 -3.5494399 192.952
7.6921601 -3.55143 193.06
7.8263698 -3.5513501 193.056
7.9619899 -3.5518899 193.08501
8.0991297 -3.5530901 193.14999
8.2408104 -3.5562 193.32001
8.3870201 -3.5611401 193.588
8.5254498 -3.56267 193.67101
8.6645603 -3.56443 193.767
8.9402599 -3.5667901 193.896
9.0765495 -3.5673101 193.924
9.2113705 -3.56724 193.92
9.3417702 -3.56548 193.82401
9.4656096 -3.5613101 193.597
9.5847502 -3.55551 193.282
9.7109699 -3.55246 193.117
9.8374996 -3.5496099 192.961
9.9642801 -3.5469201 192.815
10.0907 -3.5441799 192.666
10.3502 -3.5411999 192.504
10.4806 -3.5399699 192.437
10.6124 -3.5392399 192.397
10.7426 -3.5380099 192.33099
11.1448 -3.5381801 192.34
11.276 -3.5373299 192.29401
11.4079 -3.5367401 192.26199
11.5414 -3.5366099 192.255
11.674 -3.5362401 192.235
11.8083 -3.5363801 192.242
11.9429 -3.5366001 192.254
12.0757 -3.5362999 192.23801
12.2108 -3.53667 192.258
12.3439 -3.5364799 192.248
12.4783 -3.5366299 192.256
12.6179 -3.53824 192.343
12.7746 -3.54457 192.688
13.1471 -3.57289 194.22701
13.2984 -3.57723 194.463
13.4409 -3.5791099 194.565
13.5771 -3.5792999 194.576
13.7138 -3.5796499 194.59399
13.85 -3.5798399 194.605
13.9874 -3.5803199 194.631
14.1193 -3.5794101 194.58099
14.2508 -3.5784299 194.528
14.3838 -3.57781 194.494
14.5199 -3.57798 194.50301
14.654 -3.5776701 194.487
14.7886 -3.5774701 194.476
14.9231 -3.57727 194.465
15.0568 -3.57686 194.44299
15.1933 -3.5771401 194.45799
15.3299 -3.57743 194.474
15.4682 -3.5781 194.50999
15.6055 -3.5785301 194.534
15.7426 -3.5789101 194.554
15.881 -3.5795901 194.591
16.0226 -3.58095 194.66499
16.165199 -3.58252 194.75101
16.305799 -3.5836201 194.81
16.445101 -3.58443 194.854
16.583 -3.5849099 194.88
16.722799 -3.5857999 194.929
16.865101 -3.5872099 195.005
17.008801 -3.5888801 195.09599
17.1528 -3.5906 195.19
17.294901 -3.5918901 195.25999
17.435499 -3.59285 195.312
17.5762 -3.5938201 195.36501
17.723801 -3.5961599 195.492
17.867901 -3.59778 195.58
18.0124 -3.5994599 195.67101
18.156099 -3.60093 195.75101
18.301701 -3.6027801 195.85201
18.4447 -3.6040699 195.922
18.588499 -3.6055 196
18.7302 -3.60653 196.05499
18.880501 -3.6091599 196.198
19.0301 -3.61163 196.33299
19.1777 -3.6136899 196.44501
19.3274 -3.6161201 196.577
19.4748 -3.6180799 196.683
19.6266 -3.62082 196.832
19.7754 -3.6229801 196.95
19.927099 -3.6256299 197.09399
20.0812 -3.62869 197.25999
20.231001 -3.6309099 197.381
20.384501 -3.63378 197.537
20.5354 -3.6361599 197.666
20.690001 -3.6391499 197.82899
20.8431 -3.64184 197.97501
20.9956 -3.6443801 198.11301
21.1493 -3.64711 198.261
21.3076 -3.6505899 198.451
21.4643 -3.6537299 198.62199
21.634701 -3.6591699 198.91701
21.8468 -3.67154 199.59
22.2012 -3.6842401 200.28
22.368299 -3.6888001 200.528
22.548599 -3.6954801 200.89101
22.777 -3.7099099 201.675
23.0585 -3.7327499 202.91701
23.2349 -3.73839 203.224
-6.3650098 -3.5358601 199.77901
-6.22577 -3.5357699 199.77299
-6.08675 -3.5358 199.77499
-5.9479499 -3.53597 199.784
-5.8094101 -3.5362999 199.80299
-5.6708102 -3.5366001 199.82001
-5.5306401 -3.5359199 199.782
-5.3926201 -3.5366099 199.821
-5.2531199 -3.53635 199.806
-5.1149502 -3.5369899 199.842
-4.97611 -3.53719 199.853
-4.8375101 -3.53757 199.875
-4.6982002 -3.5374501 199.868
-4.5605001 -3.5385599 199.931
-4.4208999 -3.5382299 199.91299
-4.2813001 -3.5378799 199.892
-4.1391602 -3.5353301 199.748
-3.9955201 -3.53127 199.519
-3.8513401 -3.5264299 199.246
-3.41538 -3.5060599 198.095
-3.2725899 -3.5008399 197.8
-3.1340201 -3.49986 197.744
-2.9920299 -3.4948101 197.459
-2.8510699 -3.49053 197.217
-2.71012 -3.4858201 196.951
-2.5697899 -3.4814501 196.70399
-2.43136 -3.47931 196.58299
-2.29403 -3.47859 196.54201
-2.15625 -3.4770401 196.455
-2.0186801 -3.4756601 196.377
-1.88115 -3.4741399 196.291
-1.74321 -3.47156 196.146
-1.60531 -3.4686501 195.981
-1.33088 -3.46457 195.75
-1.05673 -3.4593101 195.453
-0.78339899 -3.45402 195.15401
-0.51062298 -3.4468501 194.74899
-0.239237 -3.44345 194.55701
-0.103724 -3.4410601 194.422
0.166821 -3.4379699 194.24699
0.30199799 -3.4374299 194.217
0.437112 -3.4367099 194.17599
0.57211 -3.4356401 194.116
0.70681399 -3.4335499 193.998
0.84157997 -3.43239 193.93201
0.97621202 -3.4310701 193.858
1.11093 -3.4303401 193.817
1.24567 -3.4298201 193.787
1.3802 -3.42889 193.73399
1.5148 -3.4282899 193.7
1.64915 -3.4272499 193.642
1.78345 -3.42629 193.58701
1.918 -3.42591 193.56599
2.05304 -3.4263899 193.593
2.1870401 -3.42519 193.52499
2.3217599 -3.4251699 193.52499
2.4563401 -3.4249799 193.513
2.5906501 -3.4244499 193.48399
2.72505 -3.4240699 193.46201
2.85934 -3.4236 193.436
2.9933901 -3.42291 193.396
3.1277499 -3.42261 193.38
3.2625101 -3.42275 193.388
3.3963001 -3.42191 193.34
3.5306301 -3.4216599 193.326
3.6647999 -3.4212699 193.304
3.7983699 -3.4203701 193.25301
3.93346 -3.4208601 193.28101
4.0678101 -3.4206901 193.271
4.2009301 -3.4195299 193.205
4.3342199 -3.41857 193.15199
4.4679499 -3.41801 193.12
4.6005001 -3.41661 193.041
4.73353 -3.4156301 192.985
4.8657098 -3.4141099 192.899
4.9984002 -3.4130099 192.83701
5.1315899 -3.4123099 192.798
5.2645798 -3.41152 192.75301
5.4004202 -3.41257 192.812
5.5348501 -3.4126999 192.819
5.6684399 -3.4123001 192.797
5.80334 -3.41271 192.82001
5.9358702 -3.4117301 192.765
6.0702701 -3.41185 192.772
6.2048898 -3.41208 192.785
6.4758101 -3.4133999 192.85899
6.6107898 -3.41377 192.88
6.74474 -3.4136 192.871
6.87884 -3.4135201 192.866
7.0124698 -3.4132199 192.849
7.1482801 -3.41396 192.89101
7.2856398 -3.4154 192.972
7.4201498 -3.4154799 192.97701
7.5553899 -3.41589 193
7.6931 -3.4173801 193.084
7.8266001 -3.41698 193.061
7.9625301 -3.41763 193.099
8.1012297 -3.41944 193.2
8.2464895 -3.4239099 193.453
8.3898802 -3.42747 193.65401
8.5289097 -3.4291601 193.75
8.6671696 -3.4305 193.826
8.80406 -3.4312699 193.869
8.9411001 -3.43206 193.914
9.0777903 -3.4327099 193.95
9.2120399 -3.43242 193.93401
9.4575901 -3.4235599 193.433
9.5818005 -3.4198301 193.22301
9.7063704 -3.4163301 193.02499
9.9609699 -3.41149 192.75101
10.0876 -3.4089401 192.60699
10.217 -3.4073801 192.519
10.3475 -3.40622 192.45399
10.4801 -3.40576 192.42799
10.6116 -3.4049699 192.383
10.741 -3.4035399 192.302
10.8745 -3.40344 192.297
11.0102 -3.404 192.328
11.144 -3.40397 192.327
11.2753 -3.4031701 192.28101
11.4093 -3.4032199 192.284
11.5414 -3.4026899 192.254
11.6735 -3.4022 192.226
11.808 -3.40241 192.23801
11.9406 -3.40204 192.218
12.0728 -3.4015901 192.192
12.2052 -3.40119 192.17
12.3411 -3.4017899 192.203
12.4767 -3.4022801 192.231
12.6104 -3.4022501 192.229
12.7433 -3.4019899 192.214
12.8815 -3.4031601 192.28101
13.0509 -3.4124601 192.806
13.2591 -3.4315901 193.88699
13.4351 -3.4421101 194.481
13.5785 -3.44415 194.597
13.7155 -3.44454 194.618
13.8534 -3.4451399 194.653
13.988 -3.4449 194.63901
14.1229 -3.4447601 194.631
14.2556 -3.4440801 194.593
14.3864 -3.44296 194.52901
14.5208 -3.44274 194.517
14.6542 -3.44226 194.49001
14.7888 -3.44208 194.48
14.9222 -3.4416001 194.453
15.0553 -3.4410801 194.423
15.1924 -3.4414799 194.446
15.3272 -3.44136 194.439
15.4645 -3.4417901 194.464
15.6018 -3.44221 194.487
15.7386 -3.4425199 194.504
15.8762 -3.4430101 194.532
16.017099 -3.44419 194.599
16.2985 -3.4463999 194.724
16.4396 -3.4475601 194.789
16.579 -3.4483399 194.83299
16.7174 -3.44892 194.866
16.859501 -3.4502399 194.94099
17.0054 -3.4522901 195.05701
17.150101 -3.4540901 195.159
17.289801 -3.45486 195.202
17.429501 -3.4556201 195.245
17.5728 -3.4570701 195.327
17.865101 -3.46102 195.55
18.01 -3.4626901 195.644
18.1544 -3.4642601 195.733
18.3002 -3.4660599 195.83501
18.4429 -3.4672599 195.903
18.5872 -3.46875 195.987
18.730301 -3.46997 196.056
18.8813 -3.4726601 196.207
19.0299 -3.4748399 196.33099
19.177299 -3.47679 196.44099
19.3297 -3.4796 196.60001
19.4762 -3.4813299 196.69701
19.6273 -3.48384 196.839
19.775801 -3.4858601 196.953
19.9286 -3.48861 197.10899
20.082399 -3.4914999 197.272
20.2325 -3.4937 197.397
20.389299 -3.49702 197.584
20.5387 -3.4990499 197.698
20.6908 -3.5014901 197.836
20.8444 -3.5041499 197.987
20.9972 -3.50667 198.129
21.1532 -3.50966 198.298
21.3125 -3.51316 198.496
21.4708 -3.5164499 198.68201
21.650101 -3.5231199 199.05901
21.865801 -3.5355999 199.763
22.043301 -3.54178 200.11301
22.2034 -3.54509 200.3
22.3722 -3.5497501 200.563
22.546101 -3.55515 200.868
-6.36443 -3.3964 199.75999
-6.2255001 -3.3964801 199.765
-6.0872598 -3.39694 199.79201
-5.9484401 -3.39709 199.80099
-5.80972 -3.39731 199.814
-5.6712899 -3.3977101 199.83701
-5.5310302 -3.3970101 199.79601
-5.39294 -3.39763 199.83299
-5.2532301 -3.3972499 199.81
-5.1152701 -3.39801 199.855
-4.9766002 -3.39832 199.873
-4.8379598 -3.39868 199.894
-4.69872 -3.3986199 199.89
-4.5602899 -3.3991499 199.922
-4.4208398 -3.3989501 199.91
-4.2815599 -3.39885 199.90401
-3.9962699 -3.39294 199.55701
-3.8519499 -3.38819 199.27699
-3.41574 -3.3684399 198.116
-3.2725 -3.3629799 197.79401
-2.99262 -3.3579299 197.498
-2.8515799 -3.35375 197.252
-2.7104499 -3.34905 196.97501
-2.5699601 -3.3446701 196.718
-2.4319201 -3.3431699 196.629
-2.2944701 -3.34234 196.58099
-2.15644 -3.3405001 196.472
-2.0190799 -3.33954 196.416
-1.88212 -3.3391299 196.392
-1.74483 -3.3380499 196.32899
-1.46944 -3.3334301 196.056
-1.1946501 -3.3283501 195.758
-0.92078602 -3.3236101 195.479
-0.64750302 -3.3178899 195.142
-0.37517399 -3.31232 194.815
-0.103805 -3.3082299 194.57401
0.0316277 -3.3060999 194.44901
0.166898 -3.3042099 194.338
0.302136 -3.3036599 194.30499
0.437271 -3.30266 194.24699
0.57231998 -3.30165 194.187
0.70705003 -3.29953 194.063
0.84177297 -3.2980599 193.976
0.97643399 -3.2967899 193.90199
1.11114 -3.29597 193.853
1.24593 -3.2955301 193.828
1.38041 -3.29445 193.76401
1.5150599 -3.2939301 193.73399
1.6491801 -3.2924399 193.645
1.7837 -3.2919099 193.614
1.9180599 -3.2911899 193.57201
2.05304 -3.2915499 193.593
2.1870799 -3.2904501 193.52901
2.32166 -3.2902501 193.517
2.45629 -3.2901199 193.509
2.5904801 -3.2894599 193.47
2.7251 -3.2893801 193.466
2.8594401 -3.289 193.44299
3.12779 -3.2879601 193.382
3.2622499 -3.2877901 193.37199
3.39625 -3.2872 193.33701
3.53034 -3.2867301 193.31
3.6647799 -3.2866099 193.30299
3.7985301 -3.2859001 193.261
3.9334199 -3.2862 193.27901
4.06815 -3.28635 193.287
4.2013798 -3.2853 193.226
4.3343 -3.2841001 193.155
4.4670701 -3.28285 193.082
4.5999799 -3.28177 193.01801
4.7330098 -3.2808499 192.964
4.8653202 -3.27948 192.884
4.9977999 -3.2783101 192.814
5.1310501 -3.2776799 192.778
5.2645502 -3.27724 192.752
5.3998899 -3.27794 192.793
5.5338998 -3.2778299 192.786
5.6669798 -3.2771699 192.748
5.8027701 -3.27808 192.80099
5.9356699 -3.2773499 192.758
6.0696802 -3.2772601 192.75301
6.2040901 -3.27738 192.75999
6.3393502 -3.27793 192.79201
6.4748802 -3.27859 192.83099
6.7436199 -3.2787199 192.839
6.8783202 -3.27894 192.85201
7.0114899 -3.27843 192.82201
7.14852 -3.2797201 192.897
7.2880702 -3.2820799 193.037
7.4218702 -3.2818301 193.022
7.5564599 -3.28193 193.02699
7.6936598 -3.2831299 193.09801
7.8266301 -3.2825201 193.062
7.9625802 -3.28316 193.10001
8.1041698 -3.2860601 193.271
8.2512598 -3.29106 193.565
8.3917999 -3.29334 193.698
8.5313196 -3.29514 193.80499
8.6683798 -3.2959599 193.853
8.8034801 -3.29601 193.856
8.9427996 -3.2976301 193.951
9.0797501 -3.2983201 193.992
9.2136297 -3.29791 193.967
9.4485703 -3.2857001 193.24899
9.5812998 -3.28508 193.213
9.7046804 -3.2813201 192.991
9.8297901 -3.27823 192.81
9.95749 -3.2760899 192.68401
10.2161 -3.273 192.50301
10.3481 -3.2723401 192.464
10.4806 -3.2718999 192.438
10.6122 -3.2711599 192.394
10.742 -3.2699101 192.321
11.0118 -3.2704999 192.355
11.147 -3.27088 192.37801
11.5429 -3.2692299 192.28101
11.6733 -3.26826 192.224
11.8077 -3.26841 192.23199
11.9404 -3.2681 192.214
12.073 -3.2677701 192.19501
12.2065 -3.2676899 192.19
12.3406 -3.2677701 192.19501
12.4719 -3.2671199 192.15601
12.608 -3.26774 192.19299
12.7417 -3.26772 192.192
12.8771 -3.2681201 192.216
13.0099 -3.2678599 192.2
13.1665 -3.27352 192.533
13.5738 -3.3074601 194.52901
13.7184 -3.30967 194.659
13.8531 -3.3094699 194.647
13.9905 -3.3099201 194.674
14.1274 -3.31025 194.69299
14.2589 -3.3092999 194.638
14.3888 -3.3080201 194.562
14.5229 -3.30773 194.545
14.6559 -3.3071599 194.51199
14.7892 -3.30671 194.485
14.9215 -3.30602 194.44501
15.0538 -3.30533 194.40401
15.1905 -3.30564 194.422
15.3262 -3.3057201 194.427
15.4616 -3.3057201 194.427
15.5987 -3.3060901 194.44901
15.7357 -3.3064401 194.46899
15.8727 -3.3067701 194.489
16.012899 -3.30776 194.547
16.153299 -3.30879 194.60699
16.293501 -3.3097501 194.664
16.435301 -3.3110099 194.73801
16.5734 -3.3115201 194.76801
16.711399 -3.312 194.79601
16.853201 -3.31322 194.868
16.999599 -3.31532 194.991
17.145599 -3.3173001 195.108
17.287001 -3.3183601 195.17
17.426701 -3.3190899 195.213
17.5702 -3.3205299 195.298
17.718201 -3.3227899 195.431
17.8636 -3.3245299 195.533
18.008499 -3.3261399 195.62801
18.154301 -3.3278999 195.73199
18.300301 -3.32969 195.836
18.4426 -3.33077 195.89999
18.5874 -3.3322799 195.989
18.731899 -3.33371 196.073
18.882601 -3.33622 196.22099
19.0312 -3.33832 196.34399
19.1779 -3.34006 196.44701
19.329201 -3.3425801 196.595
19.4765 -3.3443799 196.701
19.627399 -3.34676 196.841
19.776699 -3.34883 196.963
19.9289 -3.3513701 197.11099
20.084299 -3.3544099 197.291
20.2348 -3.35658 197.418
20.3922 -3.35988 197.612
20.541901 -3.3618701 197.729
20.6926 -3.3639901 197.854
20.8456 -3.3664501 197.99899
21.003 -3.36958 198.183
21.1588 -3.3724401 198.351
21.319799 -3.37606 198.564
21.483801 -3.38012 198.80299
21.6747 -3.38832 199.285
21.8799 -3.3986499 199.89301
22.0464 -3.4028599 200.14
22.207199 -3.4061601 200.334
22.372499 -3.4101 200.56599
22.5488 -3.4156499 200.892
22.860901 -3.4415801 202.418
23.0721 -3.4521 203.036
-6.5047998 -3.25792 199.8
-6.3635502 -3.2568099 199.733
-6.2248802 -3.25701 199.745
-6.0872302 -3.25776 199.791
-5.9481902 -3.2577901 199.79201
-5.80971 -3.2581301 199.813
-5.6715398 -3.2586601 199.84599
-5.5309 -3.2577701 199.791
-5.3923001 -3.25806 199.80901
-5.2532501 -3.25809 199.811
-5.1152802 -3.25881 199.855
-4.97681 -3.2592399 199.882
-4.83779 -3.25933 199.88699
-4.6990099 -3.2595899 199.903
-4.5600901 -3.2597499 199.91299
-4.42063 -3.2595401 199.89999
-4.2817502 -3.2597599 199.91299
-4.1412001 -3.2586701 199.847
-3.9967599 -3.2543399 199.58099
-3.8527999 -3.2501099 199.32201
-3.41627 -3.2309501 198.147
-3.2728801 -3.22557 197.817
-3.1356201 -3.2260399 197.845
-2.99297 -3.2207501 197.521
-2.8521099 -3.21696 197.289
-2.7109699 -3.21246 197.013
-2.4324701 -3.2069299 196.673
-2.2947299 -3.20577 196.60201
-2.1572001 -3.2047901 196.54201
-2.0193601 -3.2031701 196.44299
-1.88249 -3.20298 196.431
-1.7453901 -3.2023201 196.39101
-1.6082 -3.20138 196.33299
-1.4705499 -3.19927 196.20399
-1.33304 -3.1970699 196.069
-1.05828 -3.19171 195.74001
-0.784554 -3.1868501 195.442
-0.511527 -3.18118 195.09399
-0.37543499 -3.1788299 194.95
-0.239575 -3.1769099 194.832
0.0316462 -3.1725099 194.563
0.166969 -3.1702001 194.42101
0.30223101 -3.1693201 194.367
0.437379 -3.1681499 194.295
0.572442 -3.1670699 194.229
0.70726103 -3.1653099 194.121
0.84201998 -3.1638801 194.034
0.97666699 -3.1624899 193.948
1.11122 -3.16117 193.867
1.24613 -3.1610401 193.85899
1.3806 -3.15993 193.791
1.5152 -3.1592801 193.75101
1.64937 -3.1579399 193.66901
1.78388 -3.1573801 193.63499
1.91802 -3.1562901 193.56799
2.05302 -3.1566701 193.591
2.18712 -3.15571 193.532
2.32162 -3.1554 193.513
2.45614 -3.1551499 193.498
2.59041 -3.1546199 193.465
2.72522 -3.1547699 193.47501
2.8596301 -3.15447 193.45599
2.9938099 -3.15394 193.424
3.12802 -3.1535001 193.397
3.2621 -3.1529601 193.364
3.39659 -3.1528499 193.35699
3.5303099 -3.15206 193.308
3.6647899 -3.1519799 193.30299
3.79864 -3.1513801 193.267
3.9333 -3.15148 193.27299
4.0686102 -3.15207 193.30901
4.2017598 -3.151 193.244
4.3343501 -3.14959 193.157
4.4669299 -3.1482699 193.076
4.60004 -3.1473701 193.021
4.7326198 -3.1461899 192.948
4.8652301 -3.1450801 192.88
4.99755 -3.1438501 192.80499
5.1308498 -3.14328 192.77
5.2646399 -3.1430399 192.755
5.3986702 -3.1429501 192.75
5.5327001 -3.1428599 192.744
5.6661301 -3.1424501 192.71899
5.8017402 -3.14323 192.767
5.93506 -3.1427701 192.739
6.0688901 -3.14259 192.728
6.2030902 -3.1426101 192.729
6.3386302 -3.14329 192.77
6.4744201 -3.1440599 192.81799
6.60922 -3.14433 192.834
6.7425199 -3.1438899 192.80701
6.87778 -3.1443701 192.836
7.0116301 -3.1441901 192.826
7.1492701 -3.14569 192.918
7.2895899 -3.1482899 193.077
7.4247599 -3.1486101 193.097
7.5584402 -3.1482999 193.078
7.6940398 -3.1487899 193.108
7.8264799 -3.14799 193.058
7.9629798 -3.1488199 193.10899
8.1075296 -3.15275 193.351
8.2550602 -3.1577001 193.65401
8.3943701 -3.15939 193.758
8.5322199 -3.16049 193.825
8.6682997 -3.1609099 193.851
8.8034096 -3.16096 193.854
8.9432497 -3.1626899 193.96001
9.0821896 -3.1640501 194.04401
9.2137804 -3.1628599 193.97099
9.4398804 -3.14819 193.071
9.58111 -3.15044 193.209
9.7044001 -3.1468 192.98599
9.8294401 -3.14382 192.80299
9.9566898 -3.1416299 192.668
10.0844 -3.1396401 192.547
10.2163 -3.1389699 192.506
10.348 -3.1382799 192.463
10.4805 -3.13782 192.435
10.6128 -3.13732 192.405
10.7431 -3.1362801 192.34
11.0187 -3.1385 192.47701
11.1594 -3.1403899 192.593
11.4241 -3.13943 192.534
11.6775 -3.1355 192.293
11.8087 -3.1347799 192.248
11.9407 -3.13431 192.22
12.0724 -3.13376 192.186
12.2042 -3.13324 192.15401
12.3408 -3.13397 192.19901
12.473 -3.13357 192.174
12.6054 -3.13323 192.153
12.7385 -3.13306 192.14301
12.8743 -3.1335599 192.174
13.0106 -3.13416 192.211
13.1476 -3.1349101 192.257
13.298 -3.1388299 192.49699
13.5339 -3.1626301 193.957
13.7139 -3.1730499 194.59599
13.8543 -3.17418 194.66499
13.9907 -3.1743701 194.677
14.1273 -3.1746199 194.692
14.2595 -3.1738701 194.646
14.3893 -3.1726201 194.569
14.5247 -3.1726 194.56799
14.6575 -3.17203 194.533
14.7902 -3.1714499 194.498
14.9225 -3.17079 194.457
15.0546 -3.17011 194.41499
15.1902 -3.17015 194.418
15.3263 -3.17031 194.42799
15.461 -3.1701901 194.42
15.5976 -3.1704299 194.435
15.7343 -3.1707101 194.452
15.8705 -3.1708701 194.46201
16.008499 -3.1713901 194.494
16.147699 -3.1721301 194.539
16.2885 -3.1731901 194.604
16.4298 -3.1743 194.672
16.569599 -3.1751299 194.72301
16.7076 -3.17559 194.752
16.8503 -3.17694 194.834
16.995701 -3.17875 194.94501
17.140499 -3.18045 195.05
17.285 -3.18205 195.14799
17.4242 -3.1826701 195.186
17.568701 -3.1842201 195.28101
17.7166 -3.1863899 195.414
17.861401 -3.1879399 195.509
18.0063 -3.1895001 195.604
18.152399 -3.1912501 195.71201
18.3001 -3.1932399 195.834
18.4426 -3.1943099 195.899
18.5877 -3.1958101 195.992
18.733801 -3.1974699 196.093
18.8832 -3.19964 196.226
19.0315 -3.2016201 196.34801
19.179001 -3.2034099 196.45799
19.3281 -3.2054701 196.584
19.475401 -3.20719 196.69
19.6269 -3.2095799 196.836
19.7778 -3.2118199 196.974
19.9305 -3.21433 197.127
20.087099 -3.2174399 197.31799
20.237801 -3.2195599 197.448
20.3941 -3.2225399 197.631
20.5443 -3.22451 197.752
20.695299 -3.2265999 197.88
20.8479 -3.2289 198.021
21.0091 -3.2324901 198.241
21.1644 -3.2351301 198.403
21.3274 -3.23891 198.63499
21.498199 -3.24382 198.936
21.7006 -3.2534001 199.52299
21.8862 -3.26036 199.95
22.0502 -3.26403 200.175
22.2131 -3.2674899 200.388
22.376101 -3.2709301 200.59801
22.554399 -3.27654 200.94299
22.907499 -3.3073299 202.83099
23.0797 -3.31177 203.103
-6.5039401 -3.11834 199.774
-6.36377 -3.11781 199.74001
-6.2246699 -3.11778 199.73801
-6.0869699 -3.11847 199.782
-5.9478402 -3.1184399 199.78101
-5.8099599 -3.1190901 199.82201
-5.67101 -3.11917 199.827
-5.53055 -3.1184101 199.778
-5.39189 -3.11865 199.79401
-5.2520399 -3.1182001 199.765
-5.1147399 -3.1192801 199.834
-4.9761701 -3.1196201 199.856
-4.8371701 -3.1197 199.86099
-4.6978598 -3.11958 199.854
-4.5599298 -3.12041 199.90601
-4.41998 -3.1198499 199.871
-4.2816501 -3.12044 199.908
-4.1414199 -3.1196401 199.85699
-3.99793 -3.11624 199.64
-3.8546801 -3.1127999 199.41901
-3.4154401 -3.09218 198.09801
-3.2724299 -3.0873699 197.78999
-3.1356399 -3.0882599 197.847
-2.99473 -3.08498 197.63699
-2.85355 -3.0811 197.388
-2.57267 -3.0738699 196.925
-2.4330101 -3.0706201 196.717
-2.29478 -3.0689099 196.60699
-2.1574099 -3.0681901 196.561
-2.01966 -3.0668001 196.472
-1.88273 -3.06655 196.45599
-1.74542 -3.0655899 196.395
-1.60814 -3.0645199 196.326
-1.47098 -3.0635099 196.26199
-1.3334301 -3.0613899 196.12601
-1.19602 -3.05913 195.981
-1.059 -3.0574601 195.87399
-0.92181098 -3.0546899 195.69701
-0.78495997 -3.0523 195.543
-0.64824802 -3.0495501 195.367
-0.51193798 -3.04774 195.25101
-0.37569699 -3.0451601 195.086
-0.239677 -3.0425 194.91499
-0.103917 -3.0404401 194.784
0.031659398 -3.03827 194.644
0.167018 -3.03567 194.478
0.30233401 -3.03496 194.433
0.43755099 -3.0340099 194.371
0.57252097 -3.0322001 194.256
0.70739001 -3.0306499 194.15601
0.84229702 -3.0297301 194.097
0.97684902 -3.0279701 193.98399
1.11151 -3.0269301 193.918
1.24619 -3.02617 193.869
1.38088 -3.0255599 193.83
1.51534 -3.0246201 193.77
1.64949 -3.0232501 193.68201
1.7837 -3.0222001 193.61501
1.9180501 -3.0215199 193.571
2.05288 -3.02162 193.578
2.18713 -3.02092 193.533
2.32178 -3.0208199 193.526
2.4560001 -3.0202 193.487
2.59021 -3.01964 193.451
2.7254 -3.0202 193.487
2.85989 -3.01999 193.474
2.9937501 -3.01916 193.42
3.12782 -3.0186 193.384
3.26226 -3.01843 193.373
3.39626 -3.01788 193.338
3.53073 -3.0177701 193.33099
3.6649201 -3.0174501 193.31
3.7983401 -3.01653 193.252
3.9335699 -3.01706 193.286
4.06848 -3.0173199 193.30299
4.2017398 -3.0163901 193.243
4.3343301 -3.0150399 193.15601
4.4660802 -3.0132101 193.039
4.5991402 -3.0123401 192.983
4.7322698 -3.01157 192.93401
4.86448 -3.0102701 192.85001
4.9973302 -3.0094199 192.79601
5.1305599 -3.0088501 192.759
5.26369 -3.00824 192.72099
5.3983202 -3.0085001 192.737
5.6657801 -3.0080299 192.707
5.8006802 -3.00841 192.73199
5.9347501 -3.0083599 192.728
6.0683899 -3.0081 192.71201
6.2028399 -3.00825 192.72099
6.33848 -3.00895 192.76601
6.4737201 -3.0094299 192.797
6.6085901 -3.0097301 192.81599
6.7421198 -3.0094199 192.79601
6.87781 -3.0100601 192.83701
7.01232 -3.01018 192.845
7.15202 -3.01247 192.992
7.2930698 -3.01524 193.16901
7.4275398 -3.01524 193.16901
7.5597401 -3.0143299 193.11099
7.6948299 -3.01459 193.127
7.8273301 -3.01384 193.07899
7.96422 -3.01478 193.13901
8.1091604 -3.0186801 193.38901
8.2560902 -3.02319 193.67799
8.3951998 -3.02473 193.77699
8.5318604 -3.0253501 193.817
8.6669502 -3.0254099 193.821
8.8034697 -3.02596 193.856
8.94485 -3.0281301 193.995
9.0822201 -3.0289099 194.045
9.70368 -3.0121601 192.972
9.8294401 -3.0095301 192.80299
9.9561396 -3.0072601 192.658
10.086 -3.00599 192.576
10.2177 -3.00529 192.532
10.3494 -3.0046301 192.489
10.4808 -3.00387 192.44099
10.6149 -3.0039201 192.444
10.7574 -3.00629 192.59599
11.2019 -3.0176799 193.325
11.5659 -3.00734 192.66299
11.8153 -3.0025499 192.356
11.943 -3.0009899 192.256
12.072 -2.9998 192.17999
12.2049 -2.9995699 192.16499
12.3394 -2.9997499 192.177
12.4718 -2.9994299 192.15601
12.6037 -2.99897 192.127
12.7372 -2.99892 192.123
12.871 -2.99893 192.12399
13.0071 -2.99948 192.159
13.1444 -3.0002699 192.21001
13.2793 -3.00051 192.22501
13.4347 -3.0053599 192.536
13.6892 -3.0320201 194.244
13.8517 -3.0380199 194.62801
13.9897 -3.0385699 194.66299
14.1272 -3.03899 194.69099
14.2594 -3.03828 194.645
14.3902 -3.0372801 194.58099
14.5269 -3.03754 194.597
14.6594 -3.0369301 194.55901
14.7919 -3.03634 194.52
14.9255 -3.03596 194.49699
15.0594 -3.03566 194.47701
15.1962 -3.0359399 194.495
15.3303 -3.0356801 194.479
15.4631 -3.0351601 194.44501
15.5977 -3.0350101 194.436
15.7325 -3.03491 194.429
15.8692 -3.0351701 194.446
16.006701 -3.0355899 194.472
16.145201 -3.03617 194.50999
16.284901 -3.0369699 194.561
16.4259 -3.0380001 194.627
16.566401 -3.0389099 194.685
16.704599 -3.0394001 194.717
16.8473 -3.0406799 194.799
16.992201 -3.04234 194.905
17.1366 -3.0439 195.005
17.282101 -3.04562 195.11501
17.422199 -3.04637 195.16299
17.568701 -3.0482099 195.28101
17.716801 -3.0503099 195.416
17.861401 -3.05176 195.509
18.0061 -3.05322 195.60201
18.151899 -3.0548401 195.70599
18.3001 -3.0568399 195.834
18.442801 -3.0578899 195.901
18.587999 -3.05934 195.995
18.736401 -3.0613101 196.121
18.886 -3.0634301 196.256
19.032499 -3.0650201 196.358
19.1807 -3.0668499 196.47501
19.328699 -3.06863 196.589
19.476 -3.0702801 196.69501
19.629101 -3.0728099 196.85699
19.780701 -3.0750799 197.00301
19.933399 -3.0774801 197.157
20.0874 -3.08004 197.32001
20.238899 -3.0822101 197.459
20.395399 -3.0850799 197.64301
20.546499 -3.08711 197.774
20.6984 -3.08922 197.909
20.8508 -3.0913999 198.048
21.0147 -3.0952401 198.29401
21.172501 -3.09813 198.479
21.334499 -3.1015899 198.701
21.5131 -3.10741 199.07401
21.7173 -3.1168201 199.677
21.892599 -3.122 200.009
22.0562 -3.1254499 200.229
22.222401 -3.12923 200.472
22.3874 -3.1327901 200.69901
22.5725 -3.1391001 201.104
22.931299 -3.1693299 203.041
-6.6431098 -2.9792399 199.77699
-6.50284 -2.9786899 199.74001
-6.3634601 -2.9785399 199.73
-6.2249999 -2.9788101 199.74899
-6.0869699 -2.97931 199.782
-5.9474902 -2.97911 199.769
-5.8095999 -2.9797201 199.81
-5.6702299 -2.9795799 199.8
-5.5300598 -2.9790001 199.761
-5.3910999 -2.9790599 199.765
-5.25103 -2.9784901 199.72701
-5.1136999 -2.97948 199.793
-4.97475 -2.9795599 199.799
-4.83599 -2.9797699 199.813
-4.6970301 -2.9798501 199.81799
-4.5591602 -2.98066 199.873
-4.41925 -2.98014 199.838
-4.2811298 -2.98084 199.884
-4.1420202 -2.98087 199.886
-4.00003 -2.97875 199.745
-3.7127299 -2.97139 199.25101
-3.27033 -2.94771 197.66299
-3.1352899 -2.95012 197.825
-2.9964099 -2.9489801 197.748
-2.71419 -2.9414999 197.24699
-2.5735099 -2.93766 196.989
-2.43327 -2.9339099 196.73801
-2.2952399 -2.93255 196.646
-2.1577101 -2.93168 196.588
-2.02 -2.9304399 196.505
-1.8824199 -2.92923 196.424
-1.74511 -2.9282701 196.36
-1.60788 -2.92731 196.295
-1.33297 -2.92377 196.058
-1.1959 -2.9223499 195.96201
-1.0588599 -2.92063 195.847
-0.92177403 -2.9182701 195.689
-0.78505301 -2.91644 195.56599
-0.64845997 -2.9144199 195.431
-0.37579101 -2.9100101 195.13499
-0.239742 -2.90751 194.968
-0.10394 -2.9054301 194.828
0.031665999 -2.9033 194.685
0.167055 -2.90084 194.52
0.302371 -2.8998899 194.45599
0.437619 -2.89908 194.40199
0.57266998 -2.89765 194.306
0.70754898 -2.89606 194.2
0.84241301 -2.8949399 194.12399
0.97693002 -2.89309 194
1.11169 -2.8923199 193.948
1.24635 -2.8915 193.894
1.38096 -2.8907199 193.842
1.51542 -2.8898001 193.78
1.64965 -2.8886299 193.701
1.78385 -2.8875799 193.631
1.91798 -2.88658 193.564
2.05281 -2.8866899 193.571
2.1870301 -2.8859899 193.524
2.32163 -2.8858399 193.51401
2.4558699 -2.8852799 193.476
2.59022 -2.8849101 193.451
2.7253499 -2.88539 193.48399
2.8598101 -2.88515 193.468
2.9936399 -2.88433 193.41299
3.1277299 -2.88381 193.37801
3.2620299 -2.8835299 193.36
3.3958099 -2.8828299 193.312
3.53058 -2.8829899 193.323
3.6649699 -2.8828399 193.313
3.7985001 -2.88205 193.25999
3.9337201 -2.88254 193.293
4.0683699 -2.8826101 193.298
4.2018099 -2.88184 193.246
4.33428 -2.88047 193.15401
4.4659901 -2.87869 193.035
4.5990601 -2.8778701 192.98
4.7316098 -2.87678 192.907
4.8638301 -2.87556 192.825
4.99719 -2.8750601 192.791
5.1301899 -2.8743801 192.745
5.2628298 -2.8735399 192.689
5.3977299 -2.87394 192.716
5.5310798 -2.8735199 192.688
5.6649399 -2.8733799 192.679
5.7995701 -2.87362 192.69501
5.93432 -2.87392 192.715
6.06917 -2.8742399 192.737
6.2024102 -2.8738101 192.70799
6.33811 -2.87451 192.755
6.4734201 -2.87501 192.78799
6.6080399 -2.87519 192.8
6.7424898 -2.8752899 192.80701
6.8775601 -2.8756399 192.83
7.0121198 -2.8757801 192.839
7.1540899 -2.87888 193.048
7.2957201 -2.8817401 193.24001
7.4292698 -2.8813701 193.214
7.5619302 -2.8806601 193.16701
7.6963801 -2.88065 193.166
7.82933 -2.88009 193.129
7.9667602 -2.88117 193.201
8.1142502 -2.8857901 193.511
8.25741 -2.8887501 193.709
8.3951597 -2.88975 193.776
8.5307903 -2.8899901 193.793
8.6663599 -2.8902199 193.808
8.8037796 -2.8910301 193.862
8.9431696 -2.8924699 193.959
9.08354 -2.89417 194.073
9.3268604 -2.88585 193.515
9.4492397 -2.8820901 193.263
9.7038002 -2.87778 192.974
9.8294001 -2.8752301 192.80299
9.9552698 -2.8728199 192.64101
10.0873 -2.8722301 192.601
10.2178 -2.8712299 192.534
10.3505 -2.8708401 192.508
10.6244 -2.8724401 192.616
10.7884 -2.88043 193.151
10.9492 -2.8873701 193.617
11.2172 -2.88696 193.589
11.4603 -2.8803201 193.144
11.5759 -2.8756399 192.83
11.826 -2.87117 192.53
11.9496 -2.86867 192.36301
12.0761 -2.8669 192.244
12.2042 -2.8655701 192.155
12.3378 -2.86553 192.15199
12.4703 -2.8652401 192.133
12.6048 -2.8654101 192.144
12.7374 -2.86514 192.12601
12.8683 -2.8645 192.08299
13.004 -2.8649399 192.11301
13.1409 -2.8656399 192.16
13.2769 -2.8661201 192.192
13.4106 -2.8660901 192.19
13.5785 -2.8733201 192.675
13.84 -2.9000101 194.464
13.9897 -2.9029701 194.66299
14.1248 -2.90289 194.657
14.2587 -2.90257 194.636
14.5288 -2.90237 194.623
14.6628 -2.9020901 194.604
14.7953 -2.90151 194.565
14.9289 -2.90115 194.541
15.0614 -2.9005699 194.502
15.1986 -2.9009299 194.526
15.3342 -2.90096 194.528
15.4685 -2.9007499 194.51401
15.6019 -2.9003799 194.489
15.7348 -2.89992 194.45799
15.8698 -2.8998499 194.45399
16.006701 -2.90012 194.47099
16.145 -2.90064 194.507
16.2831 -2.90113 194.539
16.424299 -2.9021399 194.60699
16.566299 -2.90329 194.685
16.704399 -2.9037299 194.714
16.844801 -2.9045701 194.77
16.9884 -2.9059401 194.862
17.134399 -2.90769 194.98
17.2806 -2.9094601 195.09801
17.4214 -2.91029 195.153
17.5686 -2.9121799 195.28
17.717501 -2.91431 195.423
17.8612 -2.91555 195.506
18.0054 -2.9168701 195.595
18.1525 -2.9186299 195.713
18.301399 -2.92065 195.849
18.444401 -2.9217 195.91901
18.5893 -2.9230399 196.009
18.738001 -2.9249499 196.13699
18.887199 -2.9269199 196.269
19.034 -2.9284799 196.37399
19.181 -2.9300399 196.478
19.3312 -2.93208 196.61501
19.478001 -2.9335899 196.716
19.630199 -2.9358599 196.868
19.7817 -2.93801 197.013
19.9338 -2.9402101 197.16
20.0881 -2.9427099 197.327
20.2402 -2.94485 197.47099
20.3958 -2.9474699 197.647
20.548 -2.9495699 197.78799
20.7017 -2.95186 197.94099
20.8549 -2.95403 198.08701
21.0187 -2.95767 198.33099
21.179899 -2.9609201 198.549
21.346901 -2.96491 198.81599
21.5327 -2.9714501 199.255
21.7327 -2.9798501 199.81799
21.8985 -2.9835 200.063
22.062901 -2.9868901 200.28999
22.227501 -2.9902699 200.517
22.3925 -2.99368 200.745
22.633499 -3.0071299 201.64799
-6.77981 -2.8390901 199.707
-6.64219 -2.83969 199.74899
-6.50249 -2.8394101 199.73
-6.3626299 -2.8390501 199.70399
-6.2244802 -2.8394401 199.73199
-6.0862799 -2.8398399 199.75999
-5.9468598 -2.8396699 199.748
-5.8085599 -2.84004 199.774
-5.6691098 -2.8398499 199.75999
-5.52912 -2.83937 199.72701
-5.3902798 -2.8394799 199.73399
-5.2507601 -2.83922 199.716
-5.1133099 -2.8401 199.778
-4.9738898 -2.8399 199.76401
-4.83495 -2.8399799 199.77
-4.6962299 -2.8401899 199.784
-4.5584002 -2.84097 199.839
-4.4183202 -2.8403499 199.79601
-4.28017 -2.84097 199.839
-4.1409998 -2.84094 199.83701
-3.99874 -2.8387101 199.67999
-3.85639 -2.8362501 199.507
-3.7123401 -2.83231 199.23
-3.4119899 -2.81338 197.89799
-3.27719 -2.8159299 198.077
-3.13587 -2.81285 197.86099
-2.85535 -2.8078899 197.513
-2.7144401 -2.8043799 197.265
-2.5734999 -2.8004501 196.989
-2.4331601 -2.7967601 196.729
-2.29492 -2.7951901 196.619
-2.1571901 -2.79408 196.541
-1.88155 -2.7911201 196.33299
-1.74413 -2.7899401 196.25
-1.46983 -2.78793 196.108
-1.33245 -2.7861199 195.981
-1.05834 -2.78286 195.752
-0.92158902 -2.78141 195.64999
-0.78507298 -2.7802999 195.571
-0.64853901 -2.77864 195.455
-0.51204401 -2.77631 195.291
-0.37581301 -2.77425 195.146
-0.23978201 -2.7721801 195
-0.103958 -2.77019 194.86
0.031670999 -2.7681301 194.716
0.167098 -2.7660699 194.571
0.30243799 -2.7650599 194.49899
0.43767801 -2.76404 194.42799
0.572761 -2.7627499 194.33701
0.70767403 -2.7612901 194.23399
0.84251398 -2.7600501 194.147
0.97702199 -2.75822 194.019
1.11181 -2.75753 193.97
1.24649 -2.7567599 193.916
1.38106 -2.7558999 193.855
1.51561 -2.7551701 193.804
1.64987 -2.75407 193.72701
1.78408 -2.7530799 193.65601
1.9179699 -2.75175 193.563
2.0527699 -2.7518101 193.56799
2.187 -2.7511599 193.522
2.32146 -2.75085 193.5
2.4556701 -2.7502899 193.461
2.59007 -2.75 193.44
2.72507 -2.75033 193.464
2.8597 -2.7502899 193.461
2.99352 -2.74951 193.405
3.1277001 -2.7491 193.37601
3.26193 -2.74877 193.353
3.3954101 -2.74786 193.28999
3.53054 -2.7483001 193.321
3.66506 -2.74826 193.317
3.7985401 -2.7474599 193.26199
3.9338 -2.7479701 193.297
4.0681601 -2.7478299 193.287
4.2018199 -2.7472401 193.246
4.3343902 -2.7460001 193.159
4.46591 -2.74419 193.03101
4.59905 -2.7434499 192.98
4.73142 -2.74231 192.899
4.86375 -2.7412 192.821
4.9971299 -2.7407401 192.789
5.1302299 -2.74014 192.74699
5.2629399 -2.7393799 192.69299
5.3974199 -2.7395501 192.705
5.53054 -2.7390399 192.66901
5.6640301 -2.73873 192.647
5.79848 -2.7388899 192.659
5.9335499 -2.7393301 192.689
6.06955 -2.74017 192.748
6.20188 -2.7393501 192.69099
6.3371301 -2.73983 192.72501
6.47333 -2.74069 192.785
6.6071601 -2.74053 192.774
6.7431502 -2.7412601 192.825
6.8777599 -2.74141 192.836
7.0128398 -2.74174 192.85899
7.1584802 -2.7460999 193.166
7.2976599 -2.74788 193.291
7.43045 -2.74722 193.245
7.56428 -2.7469699 193.22701
7.6986899 -2.7469299 193.224
7.83216 -2.7465701 193.19901
7.97048 -2.74788 193.291
8.1180897 -2.75231 193.603
8.3955803 -2.75491 193.786
8.5311403 -2.75512 193.80099
8.6664696 -2.75526 193.81
8.8028603 -2.7557199 193.842
8.9419699 -2.757 193.933
9.0790901 -2.7576399 193.978
9.3165798 -2.7480299 193.302
9.4478903 -2.7470801 193.235
9.5753698 -2.74507 193.093
9.7044001 -2.74354 192.98599
9.8295698 -2.7409799 192.806
9.9582596 -2.73946 192.69901
10.0881 -2.7382901 192.617
10.357 -2.7384901 192.631
10.5045 -2.7419901 192.877
10.6637 -2.74841 193.32899
10.8075 -2.7507501 193.493
10.9621 -2.7557399 193.84399
11.0904 -2.7541001 193.728
11.2186 -2.75246 193.61301
11.3473 -2.7509799 193.509
11.4746 -2.7492199 193.38499
11.5961 -2.7460999 193.166
11.7147 -2.7423799 192.90401
11.8343 -2.7390001 192.666
11.96 -2.7370701 192.53101
12.2094 -2.7328999 192.237
12.3379 -2.7316999 192.153
12.4695 -2.73123 192.12
12.6038 -2.73136 192.129
12.7376 -2.73137 192.13
12.8676 -2.7305701 192.07401
13.0012 -2.73054 192.07201
13.1382 -2.73122 192.119
13.2733 -2.7315099 192.14
13.408 -2.7316999 192.153
13.5546 -2.7342899 192.33501
13.8142 -2.7593999 194.10201
13.9864 -2.7667301 194.617
14.1258 -2.7675099 194.672
14.2612 -2.7674699 194.66901
14.3968 -2.7674899 194.67
14.5321 -2.7674501 194.66701
14.6657 -2.7670801 194.642
14.7982 -2.76652 194.60201
14.9324 -2.7662899 194.586
15.0643 -2.76563 194.53999
15.204 -2.7664199 194.595
15.3384 -2.7662301 194.582
15.4741 -2.7662599 194.584
15.6072 -2.7658501 194.55499
15.7384 -2.7651 194.502
15.8729 -2.76495 194.492
16.009501 -2.7651601 194.507
16.146 -2.7653501 194.52
16.285 -2.76595 194.562
16.424999 -2.7667201 194.616
16.7054 -2.76828 194.726
16.846399 -2.7691801 194.789
16.9907 -2.7706001 194.88901
17.1346 -2.77192 194.98199
17.2822 -2.7738199 195.116
17.4237 -2.77473 195.179
17.568899 -2.7762101 195.284
17.861 -2.77934 195.504
18.0063 -2.7807701 195.605
18.1534 -2.7824399 195.722
18.301701 -2.7842801 195.851
18.4454 -2.7853999 195.92999
18.5909 -2.7867501 196.02499
18.739 -2.7884901 196.14799
18.887699 -2.7902701 196.27299
19.0355 -2.7919099 196.388
19.1817 -2.7932899 196.48599
19.3337 -2.7955 196.64101
19.481199 -2.79702 196.748
19.634199 -2.79931 196.909
19.783501 -2.8010399 197.03
19.935301 -2.8031001 197.175
20.091499 -2.8057401 197.36099
20.2435 -2.80776 197.50301
20.398899 -2.81023 197.677
20.551701 -2.81231 197.823
20.705999 -2.8145599 197.98199
20.8608 -2.8168499 198.14301
21.0235 -2.8201699 198.37601
21.187401 -2.8236201 198.619
21.3584 -2.82795 198.924
21.551399 -2.83513 199.42799
21.741501 -2.84182 199.899
21.9062 -2.84514 200.133
22.072201 -2.8485899 200.375
22.2295 -2.8508699 200.535
22.393999 -2.8540399 200.758
-6.7785101 -2.6994801 199.66901
-6.6412501 -2.7001801 199.72099
-6.5016999 -2.69997 199.705
-6.3615699 -2.6995001 199.67101
-6.2233901 -2.6998501 199.69701
-6.0853 -2.7002699 199.72701
-5.9461498 -2.7002201 199.724
-5.80762 -2.7004499 199.741
-5.6679602 -2.70016 199.72
-5.5278802 -2.6996601 199.68201
-5.38938 -2.6999099 199.701
-5.2501202 -2.69979 199.692
-5.1124201 -2.70048 199.743
-4.9734902 -2.7005501 199.748
-4.8343 -2.70047 199.743
-4.6950698 -2.7003701 199.735
-4.5570598 -2.7009799 199.78
-4.4169402 -2.70034 199.733
-4.2784801 -2.7007201 199.761
-4.14008 -2.7011499 199.793
-3.99651 -2.6981201 199.569
-3.41294 -2.67628 197.953
-3.2781601 -2.6787601 198.136
-3.1364701 -2.67555 197.899
-2.85393 -2.6689999 197.41499
-2.7133701 -2.66593 197.187
-2.5725901 -2.6623001 196.91901
-2.43255 -2.65907 196.67999
-2.2938099 -2.65696 196.524
-2.1565299 -2.6563799 196.481
-2.0183101 -2.65449 196.341
-1.8805799 -2.6530001 196.231
-1.74325 -2.6519001 196.14999
-1.60618 -2.6510501 196.08701
-1.46929 -2.6503601 196.036
-1.33202 -2.6487701 195.918
-1.1950001 -2.6473601 195.814
-1.05805 -2.6457801 195.69701
-0.92132598 -2.6443801 195.59399
-0.784895 -2.6434801 195.52699
-0.64853001 -2.6424601 195.452
-0.37581301 -2.63833 195.146
-0.23977301 -2.63626 194.993
-0.103958 -2.63448 194.86099
0.0316718 -2.63257 194.72
0.167134 -2.63111 194.612
0.30247 -2.6298699 194.52
0.437729 -2.6289201 194.45
0.57282799 -2.6276901 194.36
0.70769 -2.62606 194.239
0.84257197 -2.62501 194.161
0.97708899 -2.62326 194.032
1.11183 -2.6224899 193.974
1.24661 -2.6219499 193.935
1.38112 -2.6210001 193.864
1.5158 -2.6205101 193.828
1.65009 -2.6194899 193.75301
1.78416 -2.6183 193.66499
1.918 -2.61696 193.56599
2.0527101 -2.61691 193.562
2.1868701 -2.6162 193.50999
2.3211999 -2.6157801 193.478
2.4555099 -2.61537 193.448
2.5901799 -2.61537 193.448
2.7249999 -2.61551 193.459
2.8595099 -2.61536 193.448
2.99331 -2.61461 193.392
3.12746 -2.6142001 193.362
3.2616601 -2.6138699 193.33701
3.3952301 -2.61309 193.27901
3.53039 -2.6135399 193.313
3.66482 -2.61344 193.30499
3.79847 -2.6128099 193.258
3.9340401 -2.6134901 193.30901
4.0682998 -2.6132901 193.29401
4.2017798 -2.6126201 193.245
4.3345499 -2.6115601 193.166
4.46595 -2.60976 193.033
4.5991998 -2.6091199 192.98599
4.73139 -2.6079299 192.89799
4.8642702 -2.6071801 192.842
4.9975801 -2.6066899 192.806
5.1306901 -2.6061201 192.76401
5.2632298 -2.60531 192.70399
5.39744 -2.60534 192.70599
5.53019 -2.6046801 192.657
5.66429 -2.60467 192.65601
5.7989802 -2.6049199 192.675
5.9335299 -2.6051099 192.689
6.0696802 -2.6059699 192.75301
6.2017999 -2.6050999 192.689
6.3364401 -2.60531 192.70399
6.473 -2.6062801 192.77499
6.6069598 -2.60618 192.76801
6.7427001 -2.6067801 192.813
6.8781199 -2.6072299 192.84599
7.0155201 -2.6084001 192.933
7.1622701 -2.6129401 193.26801
7.2996001 -2.61394 193.342
7.4323101 -2.6132801 193.293
7.5672202 -2.6134 193.302
7.70085 -2.61308 193.27901
7.8348198 -2.61288 193.26401
7.97508 -2.6147599 193.403
8.1204004 -2.6182001 193.658
8.2598305 -2.6196699 193.76601
8.3960104 -2.62007 193.79601
8.5306396 -2.6199801 193.789
8.6651201 -2.6198499 193.78
8.8020697 -2.62046 193.825
8.9403601 -2.6214499 193.89799
9.0775404 -2.6220801 193.94501
9.3207703 -2.6145699 193.38901
9.4480495 -2.61254 193.23801
9.5754299 -2.61059 193.09399
9.7051096 -2.6093099 193
9.8298702 -2.60677 192.812
9.95994 -2.60568 192.731
10.0911 -2.6048999 192.673
10.2239 -2.6045599 192.64799
10.5385 -2.61608 193.5
10.6957 -2.6215899 193.908
10.8344 -2.6224899 193.97501
10.9606 -2.6203699 193.81799
11.0871 -2.6183901 193.67101
11.2159 -2.6169801 193.567
11.3455 -2.6157999 193.48
11.4741 -2.6143999 193.377
11.6016 -2.6128099 193.258
11.7266 -2.6106801 193.101
11.8481 -2.6078401 192.89101
11.965 -2.6040599 192.61099
12.0924 -2.6026199 192.505
12.216 -2.60039 192.34
12.3417 -2.59868 192.213
12.4693 -2.5973699 192.116
12.6035 -2.59747 192.12399
12.7373 -2.59747 192.12399
12.8667 -2.5966001 192.05901
12.9994 -2.5964 192.045
13.1379 -2.5973599 192.116
13.2709 -2.5972099 192.105
13.4073 -2.5977199 192.142
13.5411 -2.5977399 192.144
13.7083 -2.60409 192.61301
13.9791 -2.6298101 194.51601
14.1283 -2.63238 194.70599
14.2637 -2.63234 194.703
14.4003 -2.63253 194.717
14.535 -2.63239 194.707
14.6689 -2.6320801 194.68401
14.8019 -2.63165 194.65199
14.9366 -2.63149 194.64101
15.0681 -2.63079 194.589
15.2078 -2.6315401 194.644
15.3431 -2.63149 194.64
15.4808 -2.63187 194.66901
15.6142 -2.63151 194.642
15.7455 -2.63082 194.591
15.8806 -2.6307399 194.58501
16.016199 -2.63077 194.58701
16.15 -2.6305001 194.567
16.287701 -2.6308701 194.595
16.427299 -2.63153 194.644
16.569201 -2.63254 194.718
16.7082 -2.63309 194.758
16.8494 -2.63397 194.82401
16.994301 -2.6354101 194.92999
17.135799 -2.6362901 194.995
17.282 -2.6378901 195.11301
17.423201 -2.63871 195.174
17.568899 -2.6401801 195.283
17.717501 -2.6420701 195.423
17.861799 -2.64329 195.513
18.006901 -2.6446099 195.61099
18.1537 -2.6461599 195.72501
18.3022 -2.6479299 195.85699
18.447599 -2.64924 195.953
18.593 -2.6505201 196.048
18.740499 -2.65207 196.16299
18.889601 -2.6538401 196.293
19.0375 -2.6554 196.409
19.183201 -2.6566501 196.50101
19.335501 -2.6587801 196.659
19.483801 -2.6603401 196.774
19.6383 -2.66271 196.95
19.7868 -2.6642499 197.063
19.937201 -2.6660099 197.194
20.094999 -2.66874 197.395
20.247 -2.67066 197.53799
20.4037 -2.6731801 197.724
20.5557 -2.67505 197.862
20.7106 -2.6772599 198.02499
20.8647 -2.6793499 198.181
21.0278 -2.68255 198.41701
21.1957 -2.6863301 198.696
21.3694 -2.6907799 199.026
21.566299 -2.6980801 199.56599
21.746201 -2.7031701 199.942
21.9165 -2.70702 200.22701
22.0793 -2.7098899 200.439
22.2377 -2.7121899 200.60899
-6.9166498 -2.5600801 199.644
-6.77635 -2.5595801 199.605
-6.6398602 -2.56054 199.679
-6.50071 -2.5604801 199.675
-6.3601699 -2.55986 199.627
-6.22191 -2.5601499 199.649
-6.0836802 -2.5604701 199.674
-5.9445601 -2.56042 199.67
-5.8060198 -2.5606201 199.686
-5.6669998 -2.5606201 199.686
-5.5268102 -2.5600801 199.644
-5.3879099 -2.5601101 199.646
-5.2491002 -2.5602 199.653
-5.1108499 -2.56057 199.68201
-4.9724798 -2.5609 199.70799
-4.8334999 -2.56092 199.709
-4.6940098 -2.5606699 199.69
-4.5558701 -2.5611601 199.728
-4.41611 -2.56075 199.696
-4.2772398 -2.5608301 199.703
-4.1391501 -2.56141 199.748
-3.9955101 -2.55848 199.519
-3.8517101 -2.5552199 199.265
-3.4138501 -2.5390799 198.006
-3.1352899 -2.5367501 197.825
-2.99385 -2.5336001 197.57899
-2.85256 -2.5302801 197.32001
-2.5709701 -2.52355 196.795
-2.4318399 -2.5213301 196.62199
-2.2930701 -2.5192599 196.46001
-2.1550701 -2.5178101 196.34801
-2.01735 -2.51653 196.248
-1.87991 -2.51543 196.162
-1.74296 -2.5148699 196.118
-1.6057301 -2.5137601 196.032
-1.46876 -2.5129099 195.965
-1.3316 -2.5115199 195.85699
-1.19472 -2.5104001 195.769
-1.05794 -2.5092101 195.677
-0.92112702 -2.5076001 195.55099
-0.78465402 -2.50652 195.467
-0.64832801 -2.5055499 195.39101
-0.51190901 -2.5035999 195.239
-0.37576801 -2.50211 195.123
-0.23976301 -2.50033 194.98399
-0.103947 -2.4984901 194.841
0.0316725 -2.497 194.72501
0.167128 -2.49547 194.605
0.30246499 -2.4943399 194.517
0.43770599 -2.49335 194.44
0.57278401 -2.49213 194.345
0.70769101 -2.4907701 194.239
0.84257299 -2.4897699 194.161
0.97710001 -2.4881401 194.034
1.11186 -2.4874301 193.978
1.2467 -2.48704 193.948
1.38126 -2.4862101 193.883
1.51578 -2.4854701 193.826
1.65009 -2.48454 193.75301
1.78417 -2.4834199 193.666
1.9179699 -2.4821 193.563
2.0525501 -2.48189 193.547
2.1867199 -2.48125 193.496
2.3211901 -2.4809999 193.47701
2.45544 -2.4805601 193.44299
2.5901201 -2.4805701 193.444
2.72486 -2.4806399 193.44901
2.85936 -2.48049 193.438
2.9932401 -2.4798501 193.38699
3.1273301 -2.4794199 193.354
3.2614601 -2.4790599 193.326
3.3952501 -2.4784801 193.28101
3.53019 -2.47875 193.302
3.6644299 -2.4785299 193.284
3.79829 -2.47808 193.24899
3.93419 -2.47894 193.31599
4.0683098 -2.4786601 193.295
4.2020602 -2.4781799 193.257
4.3348398 -2.47718 193.179
