# .PCD v0.7 - Point Cloud Data file format
VERSION 0.7
FIELDS x y z
SIZE 4 4 4
TYPE F F F
COUNT 1 1 1
WIDTH 1803
HEIGHT 1
VIEWPOINT 0 0 0 1 0 0 0
POINTS 1803
DATA ascii
7.4813299 20.7108 191.108
7.6103601 20.6999 191.007
7.8701401 20.683701 190.858
7.9985199 20.6721 190.75101
8.1289797 20.666201 190.696
8.2589903 20.6593 190.633
8.3888397 20.6523 190.56799
8.5191002 20.6465 190.51401
8.6490002 20.639999 190.45399
8.7791204 20.634199 190.401
8.9112501 20.6332 190.392
9.0419798 20.629101 190.354
9.1721897 20.623899 190.306
9.3031902 20.6206 190.27499
9.43363 20.616199 190.235
9.6959696 20.6108 190.185
9.8283701 20.6108 190.185
9.9593801 20.608 190.159
10.0906 20.605499 190.13699
10.2235 20.6066 190.146
10.3553 20.6054 190.136
10.4866 20.6035 190.118
10.618 20.6017 190.101
10.7492 20.5993 190.07899
10.8815 20.5993 190.07899
11.0142 20.6 190.086
11.1469 20.6008 190.093
11.2807 20.6035 190.118
11.4131 20.6035 190.117
11.5467 20.605801 190.13901
11.6797 20.607 190.14999
11.8115 20.605801 190.13901
11.9454 20.6085 190.164
12.0777 20.6084 190.16299
12.212 20.611601 190.192
12.346 20.6143 190.218
12.4817 20.6196 190.267
12.616 20.622801 190.29601
12.7496 20.624599 190.312
12.8842 20.628 190.343
13.0192 20.631901 190.38
13.1544 20.636 190.418
13.2917 20.6434 190.48599
13.4272 20.6479 190.52699
13.5607 20.6492 190.539
13.6974 20.6553 190.59599
13.8331 20.6598 190.63699
13.9731 20.670601 190.737
14.1111 20.678301 190.808
14.2476 20.6835 190.856
14.3908 20.6985 190.994
14.5336 20.7125 191.123
14.6839 20.736799 191.34801
14.8357 20.7628 191.588
1.69329 21.6856 198.825
1.83093 21.6766 198.742
1.9679199 21.661501 198.604
2.10496 21.648899 198.489
2.2421899 21.639799 198.405
2.3784299 21.6227 198.248
2.51548 21.6145 198.173
2.65257 21.607401 198.108
2.7890301 21.5961 198.005
2.9253199 21.5847 197.899
3.0617001 21.5749 197.81
3.1979101 21.5648 197.717
3.3333399 21.550501 197.586
3.4698801 21.544201 197.52901
3.60534 21.532 197.41701
3.7402699 21.517599 197.285
3.87517 21.504101 197.16
7.6033201 20.8137 190.83099
7.7328601 20.8048 190.74899
7.8634601 20.799 190.696
7.9914899 20.786699 190.58299
8.1207199 20.777901 190.502
8.2511702 20.7724 190.453
8.38167 20.7673 190.405
8.5119104 20.7616 190.353
8.6417704 20.755301 190.295
8.7718296 20.749599 190.243
8.9036198 20.747999 190.229
9.0348902 20.745399 190.20399
9.2954998 20.736 190.118
9.4267998 20.7337 190.097
9.5577402 20.7306 190.069
9.68857 20.727501 190.03999
9.82131 20.728399 190.049
9.9527998 20.7267 190.033
10.0831 20.722601 189.996
10.2154 20.722601 189.996
10.3481 20.7236 190.005
10.4792 20.721201 189.983
10.7415 20.716999 189.944
10.8739 20.717199 189.946
11.0067 20.7183 189.95599
11.1389 20.718201 189.95599
11.273 20.721701 189.987
11.4049 20.721001 189.981
11.5388 20.7239 190.008
11.6716 20.725 190.017
11.8036 20.7244 190.01199
11.9379 20.7279 190.04401
12.071 20.7293 190.05701
12.2042 20.7309 190.07201
12.3387 20.734501 190.105
12.6078 20.7418 190.17101
12.7413 20.743601 190.188
12.8757 20.746799 190.217
13.013 20.7547 190.289
13.1477 20.758101 190.321
13.2828 20.7621 190.358
13.4194 20.768499 190.41701
13.5544 20.7722 190.45
13.6908 20.778099 190.504
13.8267 20.783001 190.549
13.9652 20.7917 190.629
14.1028 20.798901 190.696
14.2452 20.813 190.82401
14.389 20.8288 190.96899
14.5378 20.851601 191.179
14.6881 20.875999 191.40199
1.55634 21.8447 199.013
1.69336 21.825001 198.834
1.83101 21.815901 198.75101
1.96803 21.801001 198.61501
2.10516 21.789301 198.508
2.24242 21.780199 198.425
2.3785999 21.7623 198.26199
2.51596 21.756599 198.21001
2.65292 21.748199 198.134
2.78916 21.7351 198.01401
2.9253099 21.7225 197.899
3.06142 21.710699 197.79201
3.1975999 21.700399 197.698
3.33318 21.687099 197.577
3.46892 21.6758 197.474
3.6047299 21.665899 197.383
7.0774202 20.9629 190.979
7.3367 20.944 190.80701
7.4667401 20.9361 190.735
7.5959401 20.9263 190.645
7.7251301 20.9167 190.558
7.8558698 20.9116 190.51199
7.9846601 20.9016 190.42
8.1138296 20.892799 190.341
8.24401 20.886999 190.287
8.3749704 20.8832 190.25301
8.5056601 20.878901 190.214
8.6358604 20.873501 190.16499
8.7651196 20.8661 190.097
8.89639 20.8636 190.07401
9.0275097 20.8608 190.049
9.1582298 20.857201 190.01601
9.2891302 20.854099 189.98801
9.4198799 20.8508 189.95799
9.5509195 20.848101 189.93401
9.6818399 20.845301 189.908
9.8150997 20.847601 189.929
9.94662 20.8461 189.91499
10.0765 20.841299 189.87199
10.2076 20.839199 189.85201
10.3393 20.8382 189.84399
10.4718 20.8388 189.84801
10.6038 20.838499 189.84599
10.7344 20.8356 189.819
10.8664 20.8353 189.81599
10.9996 20.837299 189.834
11.132 20.8377 189.839
11.2659 20.840799 189.867
11.3985 20.8417 189.875
11.5307 20.841801 189.87601
11.6641 20.843901 189.895
11.796 20.843399 189.89
11.9299 20.8463 189.91701
12.0639 20.8494 189.94501
12.197 20.850901 189.959
12.3322 20.8559 190.004
12.4671 20.8603 190.04401
12.6007 20.8624 190.064
12.7339 20.864 190.078
12.8675 20.8659 190.09599
13.1403 20.878901 190.214
13.2753 20.882999 190.252
13.4122 20.889999 190.315
13.5481 20.895201 190.362
13.6831 20.899 190.397
13.8207 20.9065 190.466
13.9608 20.9179 190.569
14.1017 20.930099 190.67999
14.2445 20.944901 190.815
14.4923 20.9191 190.58
1.55633 21.983101 199.011
1.69349 21.9653 198.849
1.83114 21.9559 198.76401
1.96821 21.941401 198.633
2.10535 21.9296 198.526
2.2425399 21.9196 198.436
2.37885 21.9028 198.283
2.5160799 21.8957 198.22
2.6530499 21.8873 198.14301
2.7890699 21.872299 198.007
2.92521 21.8596 197.892
3.06107 21.846001 197.77
3.1973801 21.8367 197.685
3.33325 21.825199 197.58099
3.46856 21.8111 197.45399
6.9416699 21.0874 190.90199
7.0711899 21.077299 190.811
7.1995702 21.064301 190.69299
7.3294501 21.056 190.618
7.5876298 21.035999 190.437
7.7169099 21.027 190.356
7.97716 21.0145 190.242
8.1075602 21.009199 190.194
8.23771 21.003401 190.142
8.3680296 20.998301 190.095
8.4988403 20.994499 190.061
8.6292896 20.99 190.02
8.7588797 20.9835 189.96201
8.8893299 20.9793 189.923
9.0208197 20.9776 189.908
9.1522703 20.975901 189.892
9.283 20.972601 189.86301
9.4133101 20.968399 189.825
9.5437403 20.964701 189.791
9.6745901 20.961901 189.76601
9.8069201 20.9624 189.77
9.9390497 20.9624 189.771
10.0696 20.9592 189.742
10.2004 20.956499 189.717
10.3312 20.953899 189.694
10.4644 20.9562 189.714
10.5968 20.9569 189.72
10.7276 20.954399 189.698
10.8586 20.9524 189.67999
10.9918 20.954599 189.69901
11.1252 20.9571 189.72301
11.2585 20.959299 189.742
11.3922 20.9624 189.77
11.5239 20.9615 189.76199
11.6573 20.964001 189.785
11.7896 20.964199 189.787
11.9226 20.965799 189.802
12.0575 20.9706 189.845
12.1905 20.972 189.858
12.3252 20.9764 189.897
12.4604 20.981501 189.94299
12.5939 20.983601 189.96201
12.7272 20.9853 189.978
12.8609 20.9876 189.998
12.9968 20.9935 190.052
13.1338 21.000999 190.12
13.2709 21.008499 190.188
13.4062 21.0131 190.23
13.5422 21.0186 190.28
13.6769 21.021999 190.31
13.8143 21.0296 190.37801
13.956 21.043301 190.50301
14.0976 21.0567 190.62399
1.55636 22.122299 199.01601
1.69371 22.1066 198.87399
1.83128 22.096001 198.77901
1.96842 22.0821 198.65401
2.1055801 22.0702 198.547
2.24261 22.058599 198.44299
2.3791499 22.0436 198.308
2.51614 22.0343 198.224
2.6531301 22.025999 198.149
2.7890699 22.010201 198.008
2.9252999 21.9981 197.89799
3.1973701 21.9743 197.68401
3.3336201 21.9652 197.603
6.93432 21.197901 190.7
7.06359 21.187401 190.606
7.19206 21.174999 190.494
7.3218799 21.166901 190.42101
7.4516602 21.159 190.35001
7.70996 21.1406 190.18401
7.8405499 21.1357 190.14
7.9700098 21.128 190.071
8.1014404 21.1257 190.05
8.2314396 21.119801 189.99699
8.3611898 21.1134 189.94
8.4914398 21.1085 189.896
8.6227798 21.1064 189.877
8.7530003 21.1017 189.834
8.8840504 21.0991 189.811
9.0139599 21.093901 189.76401
9.1454697 21.092501 189.75101
9.2770004 21.0912 189.74001
9.4074898 21.087601 189.70799
9.53685 21.0816 189.65401
9.6675196 21.078699 189.627
9.7992897 21.078199 189.623
9.9319801 21.079599 189.636
10.0627 21.0769 189.612
10.194 21.075399 189.59801
10.3243 21.072001 189.567
10.4572 21.0739 189.58501
10.5899 21.0753 189.597
10.722 21.0756 189.60001
10.8534 21.0744 189.589
10.9856 21.0748 189.592
11.1188 21.077 189.61301
11.2523 21.079901 189.638
11.385 21.0812 189.64999
11.5176 21.0823 189.66
11.6512 21.0851 189.685
11.7839 21.086201 189.69501
11.9175 21.0889 189.71899
12.3191 21.0982 189.80299
12.4547 21.104099 189.856
12.5878 21.1056 189.87
12.7214 21.108 189.89101
12.8549 21.1101 189.91
12.9913 21.117001 189.972
13.127 21.122499 190.021
13.2637 21.129499 190.084
13.3992 21.134501 190.13
13.5346 21.139299 190.172
13.6714 21.146099 190.233
13.8103 21.156099 190.32401
13.9546 21.173901 190.48399
14.0985 21.1908 190.636
1.55651 22.263 199.034
1.69402 22.249201 198.911
1.83143 22.2362 198.795
2.10584 22.211201 198.571
2.2426801 22.1975 198.44901
2.3793001 22.183201 198.321
2.5163801 22.1745 198.244
2.65327 22.165199 198.16
2.7890899 22.1483 198.009
2.92538 22.136499 197.90401
3.1967299 22.1075 197.644
6.8001099 21.326099 190.659
7.05725 21.301001 190.43401
7.1851902 21.2873 190.312
7.4446502 21.271601 190.17101
7.5739598 21.262899 190.09399
7.70365 21.2556 190.028
7.8345399 21.251801 189.995
7.9639101 21.244101 189.92599
8.0938196 21.2381 189.87199
8.2237501 21.2323 189.819
8.3539305 21.227301 189.77499
8.4842196 21.2227 189.73399
8.6154299 21.2206 189.715
8.74687 21.219 189.701
8.8777103 21.216101 189.675
9.0080299 21.212099 189.63901
9.1391201 21.2099 189.62
9.2701998 21.2078 189.601
9.4018698 21.2071 189.59399
9.53125 21.2013 189.543
9.6614799 21.1975 189.509
9.7926197 21.195801 189.494
9.92523 21.1973 189.507
10.0565 21.1959 189.495
10.1878 21.194599 189.483
10.3183 21.1917 189.457
10.4498 21.190901 189.44901
10.5829 21.193399 189.472
10.7155 21.194799 189.48399
10.8476 21.1952 189.48801
10.9798 21.1957 189.493
11.1122 21.1966 189.50101
11.2455 21.1992 189.524
11.3783 21.200899 189.539
11.5112 21.2026 189.55499
11.645 21.2059 189.584
11.7775 21.2069 189.593
11.911 21.209499 189.616
12.0452 21.2134 189.651
12.1788 21.2162 189.67599
12.3136 21.2209 189.718
12.4492 21.226999 189.77299
12.7171 21.233 189.826
12.8499 21.2341 189.836
12.9858 21.240299 189.892
13.1211 21.2453 189.936
13.2568 21.2509 189.98599
13.3936 21.258101 190.05099
13.5303 21.264999 190.112
13.668 21.2733 190.187
13.8094 21.287201 190.311
1.5567 22.4044 199.05901
1.69436 22.3923 198.951
1.83169 22.377899 198.823
1.96901 22.365499 198.714
2.1061399 22.3528 198.60001
2.24277 22.336599 198.457
2.3794799 22.323 198.336
2.51667 22.315201 198.267
2.6533 22.303499 198.162
2.78894 22.285 197.998
6.1511502 21.5103 191.11501
6.2793198 21.493601 190.967
6.4073801 21.4772 190.821
6.5367098 21.4657 190.71899
6.66606 21.4547 190.621
6.7950902 21.4431 190.51801
6.9228702 21.428101 190.38499
7.0512099 21.4153 190.271
7.1794901 21.402901 190.161
7.30862 21.3934 190.076
7.4384899 21.386299 190.01401
7.5679598 21.378401 189.94299
7.6978598 21.371901 189.886
7.8281002 21.3666 189.838
7.9575701 21.3594 189.77499
8.0867596 21.3517 189.70599
8.2173204 21.347799 189.67101
8.3473997 21.3428 189.627
8.4778404 21.3388 189.592
8.6090803 21.337 189.575
8.7407303 21.336201 189.56799
8.8710899 21.3323 189.534
9.0017204 21.329201 189.506
9.1330204 21.3277 189.493
9.3956604 21.325001 189.46899
9.52637 21.322399 189.44501
9.6562405 21.3179 189.40601
9.7866602 21.3148 189.37801
9.9188099 21.3155 189.384
10.0504 21.314899 189.38
10.1814 21.3132 189.364
10.3124 21.311501 189.349
10.444 21.311001 189.345
10.5767 21.312799 189.36099
10.7089 21.313601 189.367
10.841 21.314199 189.373
10.9731 21.3146 189.377
11.1052 21.315201 189.382
11.2396 21.32 189.425
11.3727 21.322201 189.444
11.5048 21.3228 189.44901
11.6386 21.3262 189.48
11.7719 21.3288 189.50301
11.9049 21.330799 189.52
12.0393 21.334999 189.55701
12.1737 21.339399 189.597
12.3088 21.3447 189.644
12.4442 21.3505 189.69501
12.5787 21.3547 189.733
12.712 21.3568 189.75101
12.8452 21.358601 189.767
12.9807 21.3641 189.81599
13.1163 21.369801 189.867
13.2541 21.378901 189.948
13.3917 21.3874 190.02299
13.5302 21.3972 190.11099
1.55704 22.547899 199.10201
1.69469 22.5352 198.99001
1.83206 22.521 198.864
1.96926 22.5068 198.739
2.10659 22.495899 198.64301
2.243 22.476999 198.476
2.3798101 22.4643 198.364
6.01794 21.642799 191.11
6.1450701 21.622 190.92599
6.2735701 21.6068 190.79201
6.4019799 21.5919 190.66
6.5304298 21.577801 190.535
6.78824 21.5541 190.326
7.0442801 21.526699 190.08501
7.1733499 21.516899 189.998
7.3021402 21.506701 189.908
7.5624199 21.4949 189.804
7.6919599 21.4877 189.74001
7.8220301 21.482201 189.69099
7.9514298 21.475 189.62801
8.0805197 21.467199 189.56
8.2108603 21.462999 189.522
8.3411102 21.4587 189.48399
8.4715796 21.455 189.452
8.6028004 21.4533 189.437
8.7339497 21.451599 189.42101
8.8651199 21.4499 189.40601
8.9954901 21.446301 189.375
9.1267996 21.445101 189.364
9.2578897 21.443399 189.349
9.3886404 21.441 189.328
9.5196304 21.4391 189.311
9.6500902 21.436199 189.285
9.7809896 21.434299 189.26801
9.9128599 21.4345 189.271
10.0448 21.434999 189.27499
10.1758 21.4333 189.25999
10.3074 21.4331 189.258
10.7028 21.4333 189.25999
10.835 21.434099 189.267
10.9674 21.4354 189.278
11.0988 21.4347 189.27299
11.6334 21.448601 189.395
11.7663 21.4505 189.411
11.899 21.452101 189.425
12.0334 21.4566 189.465
12.168 21.4613 189.507
12.3028 21.4664 189.552
12.4395 21.474501 189.62399
12.5742 21.479099 189.664
12.7082 21.482401 189.694
12.8423 21.4858 189.724
12.9771 21.4904 189.76401
13.1143 21.4988 189.838
13.253 21.5093 189.931
13.3897 21.5166 189.995
13.5295 21.5285 190.101
1.83228 22.662201 198.888
1.96955 22.6485 198.76801
2.1068001 22.636499 198.66299
6.2671099 21.7173 190.595
6.39536 21.702299 190.463
6.5237098 21.688101 190.339
6.6525502 21.676201 190.235
6.9098201 21.652399 190.026
7.0385399 21.641399 189.92999
7.2969298 21.623501 189.772
7.4267902 21.617001 189.715
7.5564198 21.610001 189.65401
7.8158898 21.5973 189.54201
7.9456301 21.591299 189.49001
8.0745897 21.583401 189.42
8.2055798 21.5811 189.39999
8.3359404 21.5772 189.366
8.4653301 21.570999 189.312
8.5959396 21.5681 189.286
8.7274399 21.5674 189.28
8.8590202 21.5669 189.276
8.9899902 21.565001 189.259
9.1213999 21.564199 189.252
9.2523203 21.5623 189.235
9.3830004 21.5599 189.214
9.5141001 21.5585 189.201
9.77598 21.555099 189.172
9.9075203 21.554701 189.16901
10.0391 21.5546 189.16701
10.1707 21.5543 189.16499
10.3023 21.5541 189.16299
10.4334 21.552999 189.153
10.5657 21.5543 189.16499
10.6976 21.554701 189.168
10.8294 21.554899 189.17
10.9617 21.556 189.179
11.0938 21.5569 189.188
11.2276 21.5609 189.22301
11.3612 21.5644 189.254
11.4938 21.565901 189.267
11.6281 21.5707 189.30901
11.7613 21.573299 189.33099
11.8939 21.574699 189.343
12.0282 21.579201 189.383
12.2969 21.587999 189.461
12.4337 21.5965 189.535
12.5703 21.6045 189.606
12.705 21.6092 189.647
12.8386 21.611799 189.66901
12.9762 21.621099 189.75101
13.2518 21.639799 189.91499
13.3919 21.6525 190.02699
1.69502 22.8169 199.02901
1.83263 22.805099 198.92599
1.97006 22.7929 198.82001
6.1317401 21.8405 190.51199
6.3871102 21.806801 190.218
6.51689 21.797899 190.14101
6.6463599 21.788401 190.058
6.7758899 21.779499 189.98
6.90486 21.7691 189.88901
7.1625299 21.748699 189.71201
7.2915201 21.739599 189.631
7.4217401 21.734301 189.586
7.5507898 21.725901 189.51199
7.6802301 21.718901 189.451
7.8102398 21.7136 189.405
7.9401999 21.708401 189.36
8.0692997 21.701099 189.29601
8.2003202 21.6991 189.27901
8.3307695 21.6957 189.24899
8.4598799 21.6889 189.19
8.5896502 21.684 189.147
8.7210798 21.683399 189.142
8.8521605 21.681999 189.129
8.98384 21.681999 189.13
9.1153698 21.6817 189.127
9.2462797 21.68 189.112
9.3768797 21.6775 189.09
9.5086498 21.677799 189.093
9.6386204 21.674101 189.06
9.7702103 21.674 189.06
9.9022398 21.6749 189.06799
10.034 21.6752 189.07001
10.166 21.676001 189.077
10.2974 21.675699 189.07401
10.4283 21.674 189.06
10.5605 21.6752 189.07001
10.6927 21.6765 189.08099
10.8242 21.676201 189.07899
10.9564 21.677299 189.089
11.0893 21.679899 189.11099
11.2233 21.684299 189.149
11.3571 21.6884 189.185
11.4902 21.691 189.20799
11.6235 21.694 189.235
11.7564 21.696199 189.25301
11.889 21.697701 189.267
12.0231 21.702 189.304
12.1575 21.7066 189.34399
12.2916 21.710699 189.38
12.4289 21.7201 189.46201
12.5661 21.729401 189.543
12.7022 21.7365 189.604
12.8382 21.7432 189.66299
12.9763 21.753401 189.75301
1.69526 22.9587 199.05701
1.83304 22.948799 198.97
5.9969602 21.9653 190.44299
6.2529502 21.9331 190.16499
6.5108299 21.91 189.964
6.6402001 21.900499 189.882
6.8993201 21.883801 189.737
7.0286698 21.875299 189.66299
7.1571002 21.8643 189.56799
7.2858 21.8545 189.483
7.41539 21.8477 189.424
7.5454798 21.842501 189.379
7.6751299 21.8363 189.325
7.8054399 21.8321 189.289
7.9359198 21.8286 189.258
8.0643396 21.819599 189.17999
8.1949501 21.816601 189.155
8.3256903 21.814199 189.133
8.45506 21.8083 189.082
8.5841703 21.801901 189.02699
8.7156096 21.8015 189.02299
8.8463697 21.7994 189.006
8.9774303 21.798201 188.995
9.1094198 21.7992 189.00301
9.24055 21.798201 188.994
9.3717003 21.797199 188.98599
9.5032196 21.7971 188.985
9.6335201 21.794201 188.96001
9.76441 21.792801 188.948
9.8968201 21.794701 188.964
10.029 21.796 188.976
10.1609 21.796801 188.983
10.2925 21.7969 188.98399
10.4242 21.797199 188.98599
10.556 21.7976 188.99001
10.6882 21.798901 189.00101
10.82 21.7995 189.006
10.9522 21.8006 189.015
11.0852 21.803499 189.041
11.2198 21.809299 189.091
11.3532 21.8127 189.12
11.4863 21.815399 189.144
11.62 21.819201 189.177
11.753 21.8216 189.19701
11.8853 21.8228 189.20799
12.0193 21.826799 189.243
12.1541 21.832399 189.291
12.2886 21.837099 189.332
12.4266 21.848101 189.427
12.565 21.859501 189.526
12.7008 21.8661 189.584
5.8625698 22.091101 190.384
5.9910598 22.0762 190.256
6.1190901 22.060301 190.119
6.24716 22.045099 189.989
6.3755598 22.031799 189.87399
6.5053 22.0235 189.802
6.6343899 22.0135 189.715
6.7635798 22.004101 189.63499
6.8930502 21.996 189.565
7.1517301 21.979799 189.42599
7.2804399 21.970301 189.343
7.4095898 21.9624 189.27499
7.6691699 21.951099 189.17799
7.7997298 21.947901 189.14999
7.9304399 21.9452 189.127
8.0591002 21.937099 189.05701
8.1892595 21.933201 189.024
8.4499798 21.9268 188.96899
8.5788898 21.92 188.91
8.7099504 21.9189 188.901
8.84062 21.9168 188.883
8.9718399 21.916201 188.877
9.10392 21.917601 188.88901
9.2347603 21.9161 188.87601
9.36621 21.916 188.875
9.4981604 21.917 188.884
9.6285 21.9144 188.862
9.7591801 21.9126 188.84599
9.8923197 21.9163 188.87801
10.0247 21.9182 188.894
10.1566 21.9191 188.903
10.288 21.919001 188.901
10.5508 21.918501 188.897
10.9485 21.924999 188.953
11.0812 21.9272 188.972
11.2165 21.9345 189.035
11.3493 21.9368 189.05499
11.4826 21.9401 189.084
11.6167 21.9447 189.12199
11.75 21.9478 189.14999
11.8826 21.949499 189.164
12.0169 21.954399 189.20599
12.152 21.9604 189.258
12.2856 21.9638 189.287
12.4236 21.974701 189.381
12.5625 21.987 189.48801
12.7011 21.9986 189.588
5.5982099 22.2265 190.409
5.7267098 22.2108 190.274
5.8551502 22.195601 190.144
6.1121898 22.1677 189.90401
6.2418799 22.158701 189.828
6.4992299 22.135099 189.625
6.6281199 22.124701 189.536
6.7579098 22.117599 189.476
6.8873 22.109501 189.407
7.0172 22.103399 189.354
7.1468401 22.0966 189.29601
7.2757702 22.087999 189.222
7.53409 22.073 189.093
7.6634898 22.0665 189.03799
7.7940502 22.063601 189.013
7.9256201 22.063499 189.01199
8.0548801 22.057199 188.95799
8.18437 22.051701 188.911
8.3147802 22.0487 188.886
8.4447002 22.0446 188.85001
8.5738802 22.0387 188.8
8.7046499 22.0371 188.786
8.83568 22.0361 188.77699
8.96768 22.0375 188.789
9.0986004 22.036301 188.77901
9.2289495 22.033701 188.757
9.3608904 22.035 188.76801
9.49333 22.037399 188.78799
9.6239996 22.0357 188.774
9.7548704 22.034401 188.763
9.8879604 22.0382 188.795
10.0206 22.040899 188.81799
10.1528 22.0425 188.832
10.2847 22.043501 188.841
10.4163 22.0436 188.842
10.5471 22.0424 188.832
10.6803 22.046 188.862
10.8137 22.0499 188.895
10.9455 22.0504 188.89999
11.0786 22.0536 188.927
11.346 22.062201 189.00101
11.4804 22.0676 189.047
11.6146 22.072399 189.089
11.7478 22.075399 189.114
11.881 22.078199 189.138
12.0156 22.083599 189.185
12.1506 22.0896 189.23599
12.2863 22.096701 189.297
12.4256 22.1101 189.411
12.5638 22.121401 189.508
5.59127 22.331499 190.173
5.7207499 22.320101 190.076
5.9776702 22.2913 189.83099
6.2359099 22.2696 189.646
6.3649001 22.259001 189.556
6.4936099 22.2479 189.461
6.6223202 22.2372 189.37
6.75212 22.230499 189.313
6.88201 22.2244 189.261
7.0117798 22.2181 189.207
7.2704301 22.203501 189.08299
7.3991199 22.1947 189.008
7.52917 22.190201 188.97
7.6580901 22.182501 188.905
7.7888198 22.1803 188.886
7.92101 22.182301 188.90199
8.0502996 22.176201 188.851
8.17939 22.169701 188.79601
8.3097601 22.166901 188.772
8.43964 22.162901 188.737
8.5693102 22.1584 188.69901
8.6999598 22.156601 188.68401
8.8311501 22.1562 188.681
8.9627304 22.156799 188.685
9.0933199 22.1549 188.66901
9.2244501 22.1544 188.66499
9.35606 22.155001 188.67101
9.4883003 22.157101 188.688
9.6196098 22.157 188.687
9.7508602 22.156799 188.685
9.8835096 22.1597 188.71001
10.0164 22.163099 188.739
10.1488 22.165199 188.757
10.2813 22.1677 188.778
10.4131 22.1684 188.784
10.5444 22.1682 188.783
10.6772 22.171101 188.80701
10.8106 22.1751 188.842
10.9434 22.177799 188.86501
11.0768 22.181601 188.897
11.2113 22.1875 188.94701
11.3445 22.190701 188.97501
11.4786 22.195801 189.01801
11.6136 22.2024 189.073
11.7471 22.205799 189.103
11.8809 22.2099 189.138
12.0158 22.215799 189.188
12.1524 22.2248 189.265
12.2928 22.240499 189.39799
5.5853701 22.440201 189.972
5.71491 22.4296 189.882
5.8434701 22.4156 189.76401
6.1005101 22.389299 189.541
6.2301898 22.381201 189.472
6.4884 22.3619 189.30901
6.6174502 22.352699 189.231
6.7470298 22.345501 189.17101
7.00599 22.3314 189.05099
7.1359501 22.3263 189.008
7.2651401 22.318899 188.946
7.5243802 22.3076 188.849
7.6543999 22.3034 188.814
7.78477 22.300301 188.78799
7.91573 22.299 188.77699
8.0451899 22.2936 188.731
8.1746998 22.288401 188.687
8.3053198 22.286501 188.67101
8.4353704 22.2831 188.642
8.5659399 22.281099 188.625
8.6965303 22.279301 188.61
8.8267803 22.2766 188.58701
8.9575701 22.2754 188.577
9.0887299 22.275101 188.57401
9.2200804 22.275299 188.576
9.35184 22.2764 188.586
9.4832897 22.2768 188.589
9.6150398 22.277901 188.59801
9.7469797 22.279301 188.61
9.8797703 22.2827 188.63901
10.0129 22.286699 188.673
10.1453 22.289 188.692
10.2777 22.2913 188.71201
10.4097 22.2927 188.72301
10.5416 22.293699 188.73199
10.6747 22.2973 188.763
10.8084 22.302099 188.80299
10.9417 22.305901 188.83501
11.075 22.3095 188.866
11.2096 22.3158 188.91901
11.3437 22.320801 188.96201
11.4769 22.3241 188.99001
11.613 22.3328 189.062
11.7472 22.3377 189.105
11.8822 22.344 189.157
12.019 22.3535 189.23801
5.57936 22.548201 189.76801
5.7083998 22.5361 189.666
5.9664202 22.5133 189.474
6.2242098 22.491501 189.291
6.3539901 22.484501 189.231
6.4828501 22.474501 189.147
6.7423301 22.461599 189.039
6.8715701 22.453899 188.974
7.00103 22.447201 188.918
7.1304898 22.4408 188.86301
7.38941 22.428499 188.75999
7.5201302 22.426399 188.743
7.6500301 22.4221 188.70599
7.7804399 22.4193 188.683
7.9103298 22.415199 188.64799
8.0403099 22.4114 188.616
8.1701403 22.4074 188.582
8.3003502 22.404499 188.558
8.4311199 22.4032 188.547
8.56178 22.4016 188.534
8.6923399 22.399799 188.519
8.8224297 22.3969 188.494
8.9535904 22.396799 188.493
9.0849104 22.396999 188.495
9.21593 22.3965 188.491
9.3475103 22.3974 188.498
9.4791403 22.3983 188.506
9.6119003 22.401899 188.536
9.7441397 22.4042 188.55499
9.8768301 22.4074 188.58299
10.0106 22.413099 188.63
10.143 22.4154 188.64999
10.2753 22.4174 188.66701
10.4082 22.421 188.69701
10.5406 22.423 188.714
10.6735 22.426201 188.741
10.807 22.430599 188.778
10.9403 22.434601 188.811
11.0739 22.438999 188.84801
11.2086 22.4454 188.90199
11.3433 22.451799 188.95599
11.6152 22.4687 189.099
11.7491 22.473101 189.13499
11.8886 22.487801 189.259
5.7028999 22.6464 189.483
5.8320799 22.635799 189.394
6.0903001 22.615499 189.224
6.2198601 22.607599 189.158
6.3491902 22.599199 189.088
6.4784198 22.590799 189.01801
6.6076999 22.582899 188.952
6.7374301 22.5769 188.901
6.8671098 22.5709 188.851
7.1266098 22.559999 188.75999
7.2553802 22.5518 188.692
7.3850002 22.546499 188.647
7.5160899 22.545799 188.64101
7.6458802 22.5413 188.603
7.7757502 22.5371 188.569
7.9063301 22.5352 188.552
8.03619 22.5312 188.52
8.1669798 22.530001 188.509
8.2972898 22.5275 188.48801
8.4274197 22.524599 188.464
8.5571699 22.5208 188.43201
8.6885004 22.5212 188.435
8.8186798 22.5186 188.414
8.9498596 22.5187 188.414
9.0816298 22.520201 188.427
9.2123804 22.5191 188.418
9.34412 22.5205 188.42999
9.7412395 22.528799 188.49899
9.87463 22.5338 188.541
10.0084 22.5394 188.588
10.1409 22.5422 188.61099
10.2733 22.5445 188.631
10.4067 22.549101 188.66901
10.5386 22.550301 188.679
10.672 22.554501 188.714
10.8064 22.561001 188.76801
10.9406 22.566601 188.81599
11.0745 22.5716 188.85699
11.21 22.5798 188.925
11.4802 22.593901 189.04401
11.6218 22.6133 189.20599
5.5690799 22.770599 189.418
5.6978898 22.7584 189.317
5.8266301 22.746401 189.217
5.9559898 22.7374 189.142
6.0855398 22.7295 189.076
6.3442001 22.712999 188.94
6.4731798 22.7041 188.86501
6.6027598 22.697599 188.811
6.9923801 22.682301 188.68401
7.1221499 22.677299 188.642
7.2509599 22.669399 188.577
7.3812099 22.6663 188.55099
7.5115199 22.663401 188.52699
7.6413498 22.659201 188.492
7.7712102 22.6553 188.459
7.9024901 22.6555 188.461
8.03269 22.6527 188.437
8.1635103 22.651699 188.429
8.2939396 22.6497 188.412
8.4234896 22.6453 188.37601
8.5534201 22.642099 188.349
8.6859303 22.6457 188.38
8.8163204 22.643801 188.364
8.9473801 22.6436 188.362
9.0782299 22.6429 188.356
9.20963 22.6436 188.362
9.3416996 22.645901 188.381
9.4735403 22.6476 188.395
9.6064901 22.6518 188.42999
9.7393398 22.655701 188.463
9.8725796 22.6604 188.502
10.0061 22.6656 188.545
10.1389 22.6691 188.57401
10.2719 22.672899 188.606
10.4061 22.679199 188.658
10.5381 22.6807 188.67
10.6716 22.685101 188.707
10.8066 22.6929 188.772
10.942 22.701099 188.841
11.0785 22.711399 188.92599
11.3515 22.7314 189.092
11.4969 22.7586 189.31799
5.4362798 22.8985 189.38499
5.56533 22.8871 189.28999
5.6935701 22.8729 189.173
5.82195 22.8599 189.06599
5.9517498 22.8529 189.008
6.0812602 22.8451 188.944
6.2109098 22.8382 188.886
6.3399301 22.8293 188.812
6.4689398 22.8207 188.741
6.7287598 22.8106 188.658
6.8585401 22.8055 188.616
6.98839 22.800699 188.576
7.1176801 22.794399 188.524
7.37748 22.7861 188.455
7.5074401 22.782301 188.424
7.6372099 22.7782 188.39
7.7671499 22.774599 188.36
7.8993902 22.7778 188.38699
8.0303202 22.777201 188.382
8.1607599 22.7752 188.366
8.2909698 22.772699 188.345
8.4206696 22.7689 188.313
8.5511703 22.7673 188.3
8.6839199 22.7717 188.336
8.8140898 22.7693 188.31599
8.9447699 22.7682 188.30701
9.07586 22.7682 188.30701
9.2075596 22.769699 188.32001
9.3398895 22.772699 188.345
9.4720297 22.7752 188.36501
9.6045799 22.7785 188.39301
9.7368603 22.7812 188.41499
9.8708601 22.787701 188.46899
10.0053 22.795099 188.53
10.1385 22.7994 188.565
10.2723 22.805099 188.612
10.4056 22.8095 188.649
10.5379 22.8116 188.66701
10.6727 22.819 188.72701
10.8102 22.8319 188.834
11.0865 22.8594 189.062
5.0458999 23.0539 189.578
5.17487 23.0406 189.46899
5.3031301 23.024799 189.339
5.5609198 23.0007 189.14101
5.6895599 22.9884 189.03999
5.9481001 22.9704 188.892
6.0781102 22.9648 188.84599
6.2076402 22.957701 188.787
6.4654298 22.939699 188.63901
6.59519 22.934299 188.595
6.7254801 22.930901 188.56599
6.85499 22.924999 188.51801
6.9847202 22.92 188.47701
7.1142902 22.914801 188.43401
7.2433801 22.908199 188.38
7.37362 22.905399 188.35699
7.5037699 22.902399 188.332
7.6331 22.896999 188.28799
7.76334 22.8946 188.26801
7.8954 22.897499 188.29201
8.02701 22.899 188.304
8.1580696 22.898899 188.304
8.28825 22.8964 188.283
8.4184904 22.8941 188.26401
8.5490999 22.8929 188.254
8.6811895 22.895599 188.27699
8.8113804 22.8934 188.258
8.9423904 22.8932 188.257
9.0742598 22.8953 188.274
9.2057304 22.896299 188.282
9.3385801 22.9007 188.31799
9.4718904 22.906 188.362
9.6050997 22.910999 188.403
9.7378101 22.9146 188.433
9.8707705 22.9188 188.467
10.0048 22.9251 188.519
10.1388 22.931499 188.57201
10.2739 22.9401 188.642
10.4072 22.9443 188.677
10.5406 22.948999 188.715
10.678 22.9617 188.82001
4.91395 23.1861 189.58
5.0421901 23.1689 189.439
5.1711102 23.155701 189.33099
5.2999601 23.142799 189.22501
5.4284401 23.129 189.112
5.55797 23.1201 189.03999
5.6870499 23.1099 188.95599
5.8158598 23.0991 188.868
5.9452 23.0907 188.8
6.07511 23.0849 188.752
6.2045898 23.077801 188.694
6.3333402 23.0683 188.616
6.4629302 23.062201 188.56599
6.5925698 23.056499 188.519
6.7227802 23.052999 188.491
6.85219 23.0469 188.44099
6.9821301 23.042801 188.408
7.11169 23.0376 188.36501
7.2402701 23.029499 188.299
7.3703899 23.0264 188.274
7.5008898 23.0247 188.25999
7.6302199 23.019501 188.217
7.76053 23.017401 188.2
7.8921599 23.019199 188.215
8.02386 23.021099 188.23
8.1549597 23.021299 188.23199
8.2858801 23.021 188.229
8.41644 23.019699 188.218
8.5468397 23.018 188.205
8.6785297 23.019699 188.21899
8.8096399 23.019899 188.22099
8.9414797 23.021999 188.23801
9.0734997 23.0245 188.258
9.2044401 23.0242 188.256
9.3376703 23.0296 188.3
9.47153 23.036301 188.355
9.6040802 23.039801 188.383
9.7374601 23.045099 188.42599
10.0071 23.0618 188.563
10.1423 23.070801 188.63699
10.2786 23.0819 188.728
10.4171 23.0979 188.858
4.7810998 23.3139 189.545
4.9101501 23.3001 189.433
5.03861 23.284401 189.30499
5.1676402 23.271999 189.20399
5.2967901 23.2607 189.112
5.42555 23.248301 189.01199
5.68398 23.229 188.854
5.8127799 23.2183 188.76801
5.94244 23.2115 188.71201
6.2021999 23.2003 188.621
6.3313599 23.1924 188.55701
6.4602399 23.183901 188.48801
6.5899801 23.178699 188.44501
6.7203302 23.1758 188.422
6.85009 23.171 188.383
6.9799399 23.1667 188.34801
7.1099901 23.1632 188.32001
7.23876 23.1558 188.25999
7.36833 23.1511 188.22099
7.49894 23.149799 188.211
7.6286001 23.1457 188.177
7.7588701 23.143499 188.16
7.8896098 23.142799 188.15401
8.0210505 23.1441 188.164
8.1530104 23.1469 188.187
8.2845297 23.1483 188.198
8.4143295 23.145 188.17101
8.5439301 23.141199 188.14
8.6753101 23.1423 188.149
8.8080597 23.1469 188.187
8.9407902 23.1514 188.22301
9.0727301 23.1537 188.242
9.2041502 23.1546 188.25
9.3383503 23.162399 188.313
9.4724798 23.169901 188.37399
9.6048498 23.1728 188.39799
9.7388 23.179501 188.452
9.8745804 23.1903 188.53999
10.012 23.2047 188.657
10.1513 23.222799 188.804
4.6481199 23.440701 189.50301
4.7775302 23.4284 189.403
4.9071398 23.4177 189.317
5.03548 23.401699 189.187
5.1649299 23.3915 189.105
5.2937999 23.3792 189.005
5.4230099 23.368999 188.923
5.5510101 23.3542 188.80299
5.6799598 23.344 188.72099
5.8094602 23.3365 188.66
6.0695901 23.3267 188.58099
6.1996498 23.3221 188.54401
6.3291001 23.315399 188.49001
6.4575901 23.305599 188.41
6.7184501 23.300501 188.369
6.84796 23.295 188.325
6.97751 23.289801 188.283
7.1081901 23.2885 188.272
7.2376299 23.2833 188.23
7.3674202 23.279301 188.198
7.4973302 23.2759 188.17
7.6272702 23.272699 188.144
7.7572098 23.2696 188.119
7.8881998 23.269699 188.12
8.0193596 23.2703 188.125
8.1520596 23.2752 188.16499
8.2837801 23.2773 188.181
8.4128103 23.271799 188.13699
8.5427198 23.2689 188.114
8.6743803 23.2708 188.129
8.80758 23.276699 188.177
8.94032 23.2812 188.214
9.0723104 23.283701 188.23399
9.2056198 23.289499 188.28
9.3406897 23.2994 188.36099
9.6103401 23.3174 188.506
9.74722 23.3309 188.61501
9.8875599 23.3522 188.78799
4.51717 23.577801 189.54401
4.7752299 23.549 189.312
4.90416 23.535299 189.202
5.0329499 23.521601 189.092
5.16225 23.511 189.006
5.29181 23.502001 188.93401
5.4205799 23.490101 188.838
5.5492702 23.4783 188.744
5.6781502 23.468 188.661
5.9376402 23.4554 188.56
6.0677199 23.4508 188.52299
6.1970201 23.443501 188.464
6.3264098 23.4368 188.41
6.5855398 23.4254 188.319
6.71632 23.424299 188.31
6.8462701 23.420401 188.278
6.9766698 23.4181 188.25999
7.1066499 23.4146 188.23199
7.2362199 23.4098 188.19299
7.3664398 23.407301 188.173
7.4962702 23.4037 188.144
7.62569 23.398899 188.106
7.7556601 23.395901 188.082
7.8865299 23.3958 188.08
8.0196199 23.402 188.131
8.1532297 23.409599 188.192
8.2834196 23.407301 188.173
8.4126101 23.4023 188.133
8.5447197 23.405399 188.158
8.6763401 23.407101 188.172
8.8078203 23.4084 188.18201
8.9398298 23.410999 188.203
9.0735903 23.4181 188.25999
9.2100201 23.431801 188.37
9.4847698 23.4627 188.618
4.3850799 23.709101 189.53799
4.5145502 23.6961 189.43401
4.6433501 23.680401 189.308
4.7727799 23.668699 189.215
5.0307002 23.6427 189.007
5.1603098 23.633699 188.935
5.2898998 23.625099 188.866
5.4186301 23.6131 188.771
5.5479698 23.6043 188.7
5.6767402 23.5935 188.614
5.8059402 23.584999 188.54601
5.9360099 23.5802 188.508
6.06603 23.5755 188.47
6.1954098 23.5686 188.41499
6.32516 23.563299 188.373
6.4548001 23.557899 188.32899
6.5843501 23.552299 188.285
6.7148499 23.550301 188.26801
6.84514 23.5476 188.24699
6.9756699 23.5459 188.233
7.1051898 23.540899 188.19299
7.2346702 23.5359 188.153
7.3652401 23.5345 188.142
7.49476 23.530001 188.106
7.6244402 23.5261 188.075
7.75495 23.524799 188.065
7.8867002 23.5273 188.084
8.0198002 23.5336 188.13499
8.1523104 23.538099 188.17101
8.2840204 23.5401 188.187
8.4148397 23.5396 188.183
8.5475101 23.544201 188.21899
8.6795397 23.5469 188.241
8.8112297 23.548599 188.255
8.9462605 23.559099 188.339
9.0841303 23.576599 188.479
9.2197599 23.5879 188.569
9.36516 23.623501 188.854
4.25313 23.841101 189.53799
4.3826599 23.827999 189.433
4.5117202 23.813101 189.315
4.6409998 23.8002 189.213
4.77039 23.788601 189.12
4.89958 23.7766 189.02499
5.02881 23.765499 188.936
5.1586199 23.7575 188.873
5.2881098 23.7486 188.802
5.4163499 23.7346 188.69099
5.5463099 23.7286 188.64301
5.8042798 23.709499 188.491
5.9345398 23.7057 188.461
6.0647502 23.701799 188.42999
6.1943698 23.6959 188.383
6.3239102 23.6898 188.33501
6.4530001 23.6824 188.276
6.5833101 23.679701 188.255
6.7136798 23.677299 188.23599
6.8435702 23.6733 188.20399
6.9738302 23.670799 188.18401
7.1040101 23.667999 188.162
7.2344799 23.6663 188.14799
7.3650198 23.6649 188.13699
7.4948502 23.661301 188.108
7.6240902 23.656 188.06599
7.75525 23.6567 188.07201
7.88693 23.659 188.09
8.0197296 23.6644 188.133
8.1524296 23.6695 188.173
8.28475 23.673201 188.203
8.4162197 23.6745 188.213
8.5492697 23.680099 188.258
8.68503 23.693001 188.36
8.8241901 23.7146 188.532
8.9653797 23.7409 188.741
9.1044197 23.7609 188.89999
9.2504902 23.7983 189.198
3.99225 23.991199 189.681
4.1213999 23.9744 189.548
4.2507 23.9594 189.429
4.3804102 23.947599 189.336
4.5096402 23.933901 189.228
4.6388402 23.9209 189.125
4.7684898 23.910801 189.045
4.8976598 23.898899 188.951
5.0273299 23.8901 188.881
5.2863202 23.872 188.73801
5.41466 23.858601 188.632
5.5448699 23.8538 188.59399
5.6739602 23.844601 188.521
5.8032198 23.836399 188.457
5.9340601 23.834999 188.446
6.0641499 23.8307 188.412
6.1933098 23.823 188.351
6.3232799 23.818701 188.317
6.4527998 23.812799 188.271
6.58283 23.809099 188.241
6.7133002 23.8071 188.22501
6.8428898 23.802099 188.185
6.9727201 23.798 188.15401
7.10288 23.7953 188.132
7.2336302 23.7946 188.12601
7.3640699 23.7929 188.11301
7.4949002 23.7925 188.10899
7.6249499 23.7896 188.08701
7.7568302 23.792601 188.11
7.8892102 23.7969 188.144
8.0220499 23.802401 188.188
8.1543703 23.8062 188.218
8.28687 23.8104 188.252
8.4236403 23.826599 188.379
8.5593395 23.8393 188.48
8.7027397 23.8727 188.744
8.8456898 23.903999 188.991
3.86005 24.1224 189.673
3.9893999 24.1061 189.545
4.1188698 24.0916 189.431
4.3779402 24.065901 189.229
4.5072799 24.053101 189.129
4.6368098 24.042 189.04201
4.76653 24.0326 188.967
4.8957901 24.021299 188.879
5.0258799 24.0147 188.826
5.1556802 24.007 188.76601
5.2845201 23.9953 188.674
5.4138699 23.9865 188.605
5.5440798 23.9818 188.56799
5.67314 23.972401 188.494
5.8026199 23.9652 188.438
5.9331999 23.962799 188.41901
6.0633202 23.9587 188.386
6.1926298 23.951599 188.33
6.3227201 23.947701 188.3
6.4520602 23.9412 188.24899
6.5819001 23.936899 188.215
6.7129502 23.936899 188.215
6.8433199 23.934601 188.19701
6.9731798 23.9307 188.166
7.1030202 23.9268 188.136
7.3650599 23.927099 188.138
7.49614 23.9275 188.14101
7.62748 23.9286 188.14999
7.7597299 23.932501 188.17999
8.0258303 23.9447 188.27699
8.1636696 23.9646 188.433
8.4422302 24.0107 188.795
3.7277501 24.2528 189.66
3.85764 24.2393 189.55499
3.98718 24.2246 189.44
4.1168799 24.2118 189.34
4.2464199 24.1989 189.239
4.3761501 24.187799 189.15199
4.6352601 24.165701 188.979
4.7650299 24.156601 188.908
4.8941398 24.1448 188.815
5.0243602 24.138901 188.769
5.1543598 24.132299 188.718
5.2831402 24.120399 188.625
5.4128098 24.1131 188.56799
5.5432301 24.1094 188.539
5.6724901 24.100901 188.472
5.80229 24.0951 188.427
5.9328499 24.0926 188.407
6.0630698 24.0889 188.37801
6.19245 24.082001 188.325
6.3225498 24.078199 188.295
6.45262 24.074499 188.265
6.58285 24.0714 188.242
6.7132802 24.069201 188.224
6.8431802 24.065201 188.19299
6.9732299 24.061899 188.16701
7.10394 24.0609 188.16
7.2343998 24.0592 188.146
7.3660798 24.061501 188.164
7.49825 24.0653 188.194
7.62995 24.067499 188.211
7.7627301 24.072901 188.25301
7.9032402 24.1017 188.479
8.0451298 24.133801 188.729
8.1825104 24.151501 188.868
8.32549 24.1849 189.129
8.4745197 24.234501 189.517
3.3362601 24.418699 189.923
3.46592 24.4006 189.782
3.59569 24.384701 189.659
3.72539 24.3694 189.53999
3.85572 24.359301 189.461
3.9853499 24.3454 189.353
4.1150599 24.333 189.256
4.24473 24.320999 189.16299
4.3747201 24.3116 189.09
4.5040498 24.299101 188.993
4.6339698 24.290501 188.92599
4.7634902 24.2803 188.847
4.8925099 24.2682 188.752
5.0232801 24.2651 188.729
5.1533799 24.2591 188.68201
5.2823701 24.248301 188.597
5.4120698 24.2411 188.54201
5.5423102 24.2367 188.507
5.6714401 24.227699 188.438
5.8018098 24.2244 188.411
5.93225 24.221399 188.388
6.0624199 24.217501 188.358
6.1922698 24.2125 188.319
6.3226299 24.2097 188.297
6.4531898 24.207701 188.282
6.5836201 24.205299 188.26401
6.7136598 24.2017 188.235
6.84407 24.1994 188.218
6.9746199 24.1978 188.205
7.1051202 24.195999 188.19099
7.2361102 24.195999 188.19099
7.3695502 24.203899 188.25301
7.5036998 24.2139 188.33
7.7820201 24.2642 188.72099
7.92415 24.2971 188.97701
8.3597298 24.416599 189.907
8.5073795 24.461 190.252
2.9435799 24.584 190.179
3.0743201 24.570801 190.076
3.20382 24.5492 189.909
3.3336201 24.531401 189.772
3.46316 24.5133 189.631
3.59357 24.5023 189.547
3.7237401 24.490601 189.45599
3.8538401 24.4792 189.368
3.9835401 24.4662 189.267
4.11379 24.457199 189.198
4.2437801 24.4473 189.121
4.3735099 24.4366 189.03799
4.5028 24.424 188.94099
4.6325998 24.4149 188.87
4.76226 24.4056 188.798
4.89152 24.394699 188.714
5.0223999 24.392401 188.696
5.15309 24.389099 188.67101
5.2820501 24.378099 188.586
5.4116602 24.3706 188.528
5.5416799 24.3652 188.48599
5.6709099 24.356701 188.42
5.8013201 24.3535 188.396
5.9316902 24.3503 188.371
6.0622902 24.3482 188.354
6.1923599 24.344 188.32201
6.3231301 24.3428 188.312
6.4541402 24.3424 188.31
6.5851102 24.341999 188.306
6.7161002 24.3416 188.30299
6.84727 24.3419 188.306
6.9772701 24.3381 188.276
7.1092 24.341101 188.299
7.3832698 24.3804 188.603
7.5216498 24.403299 188.78101
7.6679502 24.4508 189.14799
7.8101702 24.483801 189.40401
7.9533801 24.518801 189.674
8.0980501 24.557199 189.97099
8.24086 24.588699 190.214
3.0715301 24.680799 189.90401
3.20155 24.664 189.77499
3.3313799 24.6471 189.644
3.59163 24.621099 189.44501
3.72193 24.6106 189.364
3.9819 24.5879 189.189
4.1118798 24.5776 189.11
4.24266 24.572599 189.071
4.3722 24.560801 188.981
4.5015001 24.5485 188.886
4.6314201 24.540199 188.82201
4.76162 24.5338 188.77299
4.89113 24.5242 188.69901
5.0218501 24.521099 188.675
5.15238 24.5172 188.645
5.2820101 24.5093 188.58501
5.4117799 24.502501 188.532
5.5415502 24.495899 188.48199
5.6711202 24.4888 188.427
5.8012099 24.484301 188.392
5.9316802 24.481501 188.37
6.0622802 24.4793 188.354
6.1935401 24.4799 188.358
6.5861201 24.4769 188.33501
6.7185798 24.4818 188.373
6.8499999 24.4828 188.381
6.9835601 24.491301 188.446
7.12328 24.5207 188.672
7.2649002 24.555401 188.939
7.40553 24.5856 189.172
7.69484 24.6688 189.811
7.8373199 24.701401 190.062
7.9820499 24.739799 190.358
8.1271496 24.7782 190.653
2.6784 24.845301 190.14999
2.80913 24.8307 190.039
2.9391899 24.811899 189.895
3.0695701 24.797199 189.783
3.2000201 24.7843 189.68401
3.32985 24.767799 189.558
3.46012 24.755699 189.465
3.5899899 24.7418 189.358
3.7202899 24.7316 189.28101
3.8504801 24.7215 189.203
3.9802301 24.709299 189.11
4.1101098 24.6987 189.028
4.37113 24.686501 188.935
4.5005798 24.6751 188.84801
4.6306 24.6674 188.789
4.7603998 24.659 188.724
4.8907099 24.6535 188.683
5.0214801 24.6507 188.661
5.1521301 24.6474 188.636
5.28231 24.642099 188.595
5.4116201 24.633101 188.526
5.54144 24.626699 188.478
5.6711998 24.620501 188.42999
5.8017101 24.617599 188.408
5.93297 24.618 188.411
6.0633502 24.614901 188.38699
6.1941099 24.6133 188.375
6.3261199 24.616699 188.401
6.4580998 24.6199 188.425
6.5900998 24.622999 188.44901
6.7251401 24.6371 188.55701
7.0054302 24.699699 189.036
7.14679 24.7335 189.295
7.2901702 24.7729 189.59599
7.4336901 24.811399 189.89101
7.5801601 24.8582 190.24899
7.7226601 24.8906 190.49699
7.8681598 24.9314 190.81
8.0131302 24.969299 191.099
2.1526401 25.021099 190.481
2.2834799 25.001801 190.334
2.41429 24.984301 190.2
2.5452099 24.9697 190.09
2.6763201 24.9583 190.00301
2.8071899 24.9459 189.908
2.93734 24.928499 189.776
3.06774 24.914499 189.66901
3.19821 24.902399 189.577
3.3283801 24.888901 189.474
3.4585299 24.8762 189.37801
3.58866 24.864401 189.28799
3.71929 24.8568 189.23
3.8496499 24.8479 189.162
3.9790499 24.8337 189.054
4.1090398 24.8239 188.979
4.2401299 24.8211 188.95799
4.3703299 24.813499 188.89999
4.5004702 24.806 188.843
4.6307998 24.7999 188.797
4.76021 24.7894 188.717
4.8902602 24.7827 188.666
5.0209398 24.7794 188.64101
5.15167 24.7766 188.619
5.2821999 24.7729 188.591
5.4119 24.7656 188.536
5.54178 24.759501 188.489
5.6719198 24.754801 188.45399
5.8031201 24.7549 188.45399
5.9351401 24.758301 188.48
6.0655298 24.754999 188.455
6.1964698 24.753901 188.44701
6.3322501 24.7719 188.584
6.4681802 24.7897 188.71899
6.6052599 24.811199 188.883
6.7448201 24.8409 189.10899
6.8858399 24.874701 189.366
7.0304399 24.92 189.711
7.17659 24.969 190.084
7.32093 25.01 190.396
8.0577497 25.2421 192.16299
2.28197 25.1178 190.20799
2.4128301 25.101601 190.08501
2.5436299 25.0865 189.97099
2.6747 25.0755 189.888
2.8054399 25.0625 189.78999
2.93592 25.0485 189.683
3.06636 25.0354 189.584
3.3273699 25.013201 189.41701
3.45771 25.002199 189.33299
3.5880301 24.991899 189.255
3.71842 24.9827 189.185
3.84886 24.9746 189.12399
3.97806 24.959101 189.007
4.1083202 24.951099 188.946
4.2395401 24.949301 188.93201
4.3698001 24.941999 188.877
4.4999099 24.934401 188.82001
4.6307302 24.931 188.79401
4.76057 24.922701 188.731
4.8909202 24.9175 188.69099
5.0213299 24.9128 188.65601
5.15201 24.909599 188.632
5.2820902 24.9037 188.58701
5.41187 24.896799 188.535
5.5420399 24.892 188.498
5.6732402 24.891899 188.498
5.8052702 24.895399 188.524
5.9366899 24.896099 188.52901
6.0685 24.898399 188.547
6.3450699 24.953699 188.966
6.4851999 24.9867 189.216
6.62743 25.0264 189.51601
6.76897 25.062 189.786
7.0618901 25.1642 190.56
7.2129598 25.2286 191.047
7.3660998 25.2978 191.571
7.51373 25.3459 191.936
7.6551499 25.371799 192.132
7.7976999 25.4004 192.349
8.0869703 25.468 192.86
8.2289896 25.4921 193.04201
8.3716202 25.5172 193.233
8.5147696 25.5431 193.429
8.6592302 25.572001 193.64799
8.8046398 25.6029 193.881
1.62391 25.312799 190.679
1.7555799 25.2973 190.562
1.88668 25.2764 190.405
2.0183499 25.2654 190.32201
2.14942 25.248699 190.196
2.2806201 25.2353 190.09599
2.41119 25.2169 189.957
2.54198 25.202499 189.84801
2.67295 25.191299 189.76401
2.80393 25.181101 189.687
2.9346299 25.1696 189.601
3.06532 25.158899 189.52
3.1958201 25.1476 189.435
3.3266101 25.1394 189.373
3.45698 25.128799 189.293
3.58744 25.1196 189.224
3.7179101 25.111099 189.16
3.8483701 25.1031 189.10001
3.9774899 25.0872 188.979
4.10782 25.0797 188.923
4.2388902 25.077 188.903
4.3696198 25.072599 188.87
4.4998202 25.065399 188.81599
4.6304998 25.0613 188.785
4.8910599 25.049601 188.696
5.0215001 25.045 188.662
5.1527901 25.0448 188.66
5.2832599 25.040701 188.629
5.41361 25.0362 188.595
5.9436598 25.056801 188.75101
6.0799799 25.077101 188.90401
6.22048 25.1134 189.177
6.3642602 25.1612 189.537
6.5074601 25.2048 189.86501
6.6524701 25.2535 190.23199
6.7995501 25.308001 190.64301
6.9464202 25.359699 191.032
7.0936699 25.410801 191.41701
7.2435298 25.4692 191.85699
7.3901401 25.5142 192.19701
7.53474 25.5508 192.472
7.6767502 25.5776 192.674
7.9661498 25.645599 193.186
8.2483902 25.686899 193.49699
8.5318003 25.7292 193.81599
8.6743898 25.7519 193.987
1.49055 25.434999 190.60001
1.62233 25.420799 190.493
1.75411 25.408701 190.403
2.01686 25.379101 190.181
2.1479499 25.3638 190.06599
2.2792699 25.3528 189.983
2.4101901 25.3386 189.87801
2.54111 25.326099 189.783
2.6721001 25.315399 189.703
2.8029201 25.3041 189.619
2.9335101 25.292 189.528
3.1946599 25.270399 189.366
3.32528 25.2612 189.297
3.4560699 25.254 189.243
3.5866699 25.246 189.183
3.7175701 25.240499 189.142
3.848 25.232401 189.08099
3.9774401 25.2185 188.97701
4.1079302 25.211901 188.92799
4.23877 25.207899 188.89799
4.3691702 25.2015 188.85001
4.49966 25.195999 188.80901
4.6303301 25.1919 188.778
4.7608399 25.187099 188.742
4.8916402 25.184 188.71899
5.02244 25.181101 188.69701
5.1543398 25.183701 188.717
5.2856202 25.1833 188.713
5.4152699 25.175301 188.653
5.5468102 25.176201 188.661
5.9586101 25.2516 189.226
6.0991101 25.288 189.498
6.24259 25.3349 189.85001
6.38622 25.380501 190.19099
6.5346398 25.442801 190.658
6.6861601 25.514601 191.196
6.8319502 25.562 191.55099
6.9771199 25.6054 191.877
7.1217499 25.645201 192.175
7.2660499 25.6824 192.453
7.4094501 25.715099 192.69901
7.6961298 25.776699 193.16
7.8404102 25.809 193.40199
7.9818401 25.8309 193.567
8.1230402 25.8515 193.72
8.2625704 25.8661 193.83
8.4020205 25.879999 193.93401
8.6864004 25.922899 194.256
1.22574 25.579399 190.686
1.3575701 25.562201 190.558
1.4893 25.5464 190.44
1.6208 25.5294 190.314
1.75261 25.519501 190.24001
1.88395 25.5047 190.13
2.0158 25.498199 190.08099
2.1468301 25.482901 189.967
2.27828 25.4739 189.89999
2.4091101 25.459499 189.793
2.5399699 25.4468 189.698
2.671 25.437099 189.62601
2.8018799 25.426901 189.549
2.93255 25.415701 189.466
3.06335 25.406601 189.39799
3.1934199 25.392401 189.293
3.3243799 25.3862 189.246
3.4554801 25.381399 189.211
3.58622 25.3745 189.159
3.7170601 25.368799 189.116
3.84782 25.3629 189.07201
3.97755 25.3508 188.98199
4.10818 25.3451 188.939
4.2386799 25.3389 188.894
4.36937 25.3342 188.85899
4.5000501 25.3298 188.826
4.6309199 25.326599 188.802
4.7618899 25.3241 188.783
5.02353 25.318001 188.73801
5.15518 25.3193 188.748
5.2871799 25.322201 188.769
5.4194002 25.326 188.797
5.55972 25.366501 189.10001
6.1222601 25.5165 190.217
6.2678699 25.570299 190.618
6.4175301 25.638 191.12399
6.5680099 25.706301 191.632
6.71347 25.752501 191.97701
6.85812 25.7939 192.285
7.0027199 25.8335 192.58099
7.1489902 25.877701 192.91
7.2918401 25.9081 193.13699
7.43155 25.926399 193.27299
7.5721698 25.947201 193.429
7.8524699 25.983601 193.7
7.9930501 26.0023 193.839
8.13272 26.017401 193.952
8.2718401 26.0303 194.048
8.41189 26.045601 194.162
8.552 26.060699 194.27499
0.96123701 25.738899 190.884
1.0930099 25.712601 190.689
1.22505 25.697701 190.57899
1.3566099 25.6768 190.424
1.48829 25.6616 190.311
1.61991 25.6479 190.21001
1.75167 25.638399 190.13901
1.88317 25.6264 190.05
2.01474 25.6171 189.981
2.1457601 25.6024 189.87199
2.27742 25.5966 189.82899
2.40838 25.5839 189.735
2.5393801 25.573099 189.655
2.67026 25.562 189.57201
2.8010399 25.551201 189.492
2.9317999 25.5411 189.418
3.0627401 25.5334 189.36
3.1926301 25.518 189.246
3.3238001 25.5135 189.213
