# .PCD v0.7 - Point Cloud Data file format
VERSION 0.7
FIELDS x y z
SIZE 4 4 4
TYPE F F F
COUNT 1 1 1
WIDTH 1734
HEIGHT 1
VIEWPOINT 0 0 0 1 0 0 0
POINTS 1734
DATA ascii
-0.103663 6.1701698 194.30901
0.0316061 6.1704102 194.31599
0.166843 6.1690502 194.274
0.30204999 6.1682901 194.25
0.437318 6.16887 194.26801
0.572474 6.1679602 194.239
0.70761901 6.1673198 194.21899
0.84253597 6.1652002 194.15199
0.97772598 6.16539 194.158
1.11282 6.16501 194.146
1.3832099 6.16536 194.157
1.5183901 6.1654401 194.16
1.65337 6.1647401 194.138
1.78828 6.1639299 194.112
1.92321 6.16327 194.092
2.05828 6.1631198 194.08701
2.1930699 6.16221 194.058
2.3282499 6.1624599 194.06599
2.4637201 6.1633801 194.095
2.5989299 6.1636 194.10201
2.73406 6.1636 194.10201
2.8694 6.1640701 194.117
3.0046201 6.1642399 194.12199
3.1396501 6.1640201 194.11501
3.27561 6.1655798 194.164
3.54533 6.1645098 194.131
3.68152 6.1662698 194.186
3.8180399 6.1684198 194.254
3.9533701 6.1685901 194.259
4.0891299 6.1693802 194.284
4.2248302 6.1700301 194.30499
4.3600202 6.16993 194.30099
4.4969702 6.1722298 194.37399
4.6325102 6.1725402 194.384
4.7696099 6.17485 194.45599
4.9063001 6.1765099 194.508
5.0423298 6.1772699 194.533
5.1778998 6.1774402 194.53799
5.31357 6.1777301 194.547
5.4499002 6.17874 194.57899
5.58606 6.1795201 194.603
5.7233701 6.18151 194.666
5.8592601 6.1819 194.67799
5.9946399 6.1817498 194.674
6.1328402 6.1844501 194.759
6.2688699 6.1848898 194.772
6.4065599 6.1869102 194.836
6.5426302 6.1873298 194.849
6.6787 6.1877198 194.862
6.8159699 6.1891899 194.908
7.0892701 6.1908798 194.961
7.2266502 6.1922998 195.006
7.3638902 6.1935401 195.045
7.5010099 6.1946502 195.08
7.6392999 6.1966701 195.14301
7.7760901 6.1974201 195.16701
7.9141698 6.1991501 195.222
8.0521202 6.2007198 195.271
8.1879501 6.2006502 195.269
8.3258801 6.2021298 195.315
8.4642496 6.2038898 195.371
8.6017904 6.2049999 195.40601
8.7389097 6.20577 195.42999
8.8786602 6.2083502 195.511
9.0150099 6.2085199 195.517
9.1543798 6.2107401 195.586
9.2936401 6.21281 195.65199
9.4306402 6.2133298 195.668
9.5689602 6.2147002 195.711
9.7080097 6.2164998 195.76801
9.8464003 6.2178302 195.81
9.9839001 6.2185702 195.83299
10.124 6.22087 195.90601
10.2617 6.2217102 195.93201
10.3999 6.2227898 195.966
10.5391 6.2244 196.017
10.6804 6.2272501 196.106
10.8184 6.2281098 196.133
10.9579 6.2297401 196.185
11.0973 6.23137 196.23599
11.2366 6.2328501 196.283
11.3766 6.2347102 196.341
11.5141 6.2351398 196.355
11.6546 6.2371402 196.418
11.7957 6.23947 196.491
11.9369 6.2417998 196.565
12.0778 6.2438698 196.63
12.2185 6.24581 196.69099
12.3582 6.2472401 196.73599
12.5002 6.2497702 196.81599
12.6395 6.2508798 196.851
12.7799 6.2525501 196.903
12.9215 6.2547002 196.97099
13.0621 6.2564001 197.02499
13.2068 6.2599602 197.13699
13.3473 6.2615099 197.185
13.4849 6.26162 197.189
13.6294 6.2649398 197.293
13.772 6.2673402 197.369
13.9141 6.2694898 197.437
14.0572 6.2719898 197.515
14.2009 6.2747502 197.60201
14.34 6.2754302 197.62399
14.4786 6.2758398 197.63699
14.625 6.2796402 197.756
14.7688 6.2822499 197.839
14.9134 6.28514 197.929
15.0627 6.2899599 198.08099
15.2295 6.3019199 198.45799
15.3945 6.3129201 198.804
15.5521 6.3207302 199.05
15.7014 6.3250299 199.186
15.851 6.3294101 199.32401
16.005501 6.3356299 199.519
16.1581 6.3410001 199.689
16.325899 6.35221 200.04201
16.505699 6.3678498 200.534
16.7031 6.3899698 201.231
16.8874 6.4067602 201.75999
-7.3040299 6.4525199 198.839
-7.1589599 6.4465299 198.655
-7.01404 6.4404502 198.467
-6.8719001 6.4367299 198.35201
-6.7288299 6.4319601 198.205
-6.5858798 6.4271102 198.056
-6.4439802 6.4231 197.93201
-6.3017802 6.4186101 197.79401
-6.15973 6.4140701 197.65401
-6.0191202 6.4108701 197.556
-5.8784499 6.4074402 197.45
-5.7376599 6.4037199 197.33501
-5.5963001 6.3991699 197.19501
-5.4573398 6.3971901 197.134
-5.3177199 6.39432 197.04601
-5.1791101 6.39255 196.991
-5.0395398 6.3894601 196.896
-4.90132 6.38797 196.85001
-4.7618098 6.3846502 196.748
-4.6228199 6.3818498 196.661
-4.4834499 6.3783398 196.55299
-4.3454599 6.3766398 196.50101
-4.2078099 6.37535 196.461
-4.06811 6.37076 196.32001
-3.92978 6.3680701 196.237
-3.7920201 6.3661299 196.177
-3.65289 6.36167 196.039
-3.51455 6.3583002 195.936
-3.37641 6.3550301 195.83501
-3.2397499 6.3543801 195.815
-3.1015899 6.3505998 195.698
-2.96351 6.3466601 195.577
-2.8266599 6.3450799 195.528
-2.6893301 6.3422098 195.44
-2.55181 6.3385901 195.328
-2.41523 6.3369899 195.27901
-2.2788899 6.3358998 195.245
-2.1412399 6.33079 195.088
-2.00456 6.3280501 195.00301
-1.8684601 6.32687 194.967
-1.7322 6.3249202 194.907
-1.59587 6.32236 194.828
-1.45999 6.32126 194.79401
-1.32388 6.3188701 194.72099
-1.18793 6.3168001 194.657
-1.05221 6.3155298 194.617
-0.91647297 6.3137698 194.563
-0.78088498 6.3126202 194.528
-0.64540398 6.3120399 194.50999
-0.50985903 6.3103399 194.45799
-0.374504 6.3106198 194.466
-0.23900899 6.30755 194.37199
-0.103676 6.3062801 194.332
0.031608801 6.3063002 194.33299
0.166867 6.3052602 194.30099
0.30208299 6.3042798 194.271
0.437383 6.30512 194.297
0.57252401 6.3038101 194.257
0.70766401 6.30299 194.231
0.84271997 6.3018098 194.19501
0.97789502 6.3017201 194.192
1.11294 6.30093 194.168
1.24801 6.3003898 194.151
1.38328 6.30093 194.168
1.51851 6.3011799 194.175
1.6535701 6.3007398 194.162
1.78847 6.2997899 194.133
1.92338 6.2990098 194.10899
2.05884 6.3000202 194.14
2.1935501 6.2987499 194.101
2.32847 6.2982001 194.084
2.4639399 6.29913 194.112
2.5994 6.2999301 194.13699
2.73458 6.3000002 194.13901
2.87005 6.3007102 194.161
3.0052299 6.3007302 194.162
3.1403699 6.3006701 194.16
3.2760999 6.3017802 194.194
3.4109199 6.3010898 194.173
3.5460899 6.3010802 194.172
3.6823201 6.3028898 194.228
3.8184099 6.3043399 194.27299
3.9541099 6.3050699 194.295
4.0900698 6.30615 194.328
4.2262101 6.3074298 194.368
4.3613701 6.30722 194.362
4.4979501 6.30901 194.41701
4.6338701 6.3097801 194.44099
4.7701898 6.31106 194.48
4.9074898 6.31352 194.556
5.0437002 6.3144898 194.58501
5.1794701 6.3148499 194.597
5.3160701 6.3161998 194.638
5.45186 6.3165398 194.649
5.5883498 6.3176498 194.683
5.7251902 6.3190999 194.728
5.8611302 6.31951 194.74001
5.9967599 6.3195801 194.742
6.1345401 6.3218598 194.813
6.2704 6.3221002 194.82001
6.4082398 6.3242898 194.88699
6.5446301 6.3249798 194.909
6.68081 6.3254499 194.923
6.8177099 6.32656 194.957
6.9545798 6.32761 194.99001
7.0915599 6.3287201 195.024
7.2279 6.3292198 195.039
7.36585 6.33108 195.097
7.5032101 6.3323798 195.13699
7.6419001 6.3347402 195.21001
7.77806 6.33496 195.216
7.91535 6.3360701 195.25101
8.0538301 6.3380899 195.313
8.1896 6.3379302 195.308
8.3274803 6.3393898 195.353
8.4668503 6.3419199 195.431
8.6042004 6.3428798 195.46001
8.7419796 6.34412 195.49899
8.8808699 6.3461199 195.56
9.0179195 6.3467498 195.58
9.1570301 6.3488102 195.64301
9.2948904 6.3499398 195.67799
9.4328098 6.35109 195.713
9.57057 6.3520899 195.744
9.7092896 6.3537002 195.79401
9.8477602 6.3550901 195.83701
9.9870195 6.3569598 195.894
10.1267 6.3590102 195.95799
10.2638 6.3594499 195.97099
10.4023 6.3607202 196.00999
10.5411 6.3621702 196.05499
10.6821 6.36484 196.13699
10.8191 6.3650799 196.144
10.9589 6.3669801 196.203
11.0994 6.3692198 196.272
11.239 6.3709502 196.325
11.3787 6.3725901 196.37601
11.5175 6.3737702 196.412
11.658 6.3758502 196.476
11.7991 6.37818 196.548
11.9414 6.3810902 196.638
12.0818 6.3829298 196.69501
12.222 6.3846698 196.748
12.3626 6.3865499 196.806
12.5042 6.3888898 196.87801
12.7836 6.3915401 196.96001
12.9254 6.3938298 197.03101
13.0649 6.39499 197.06599
13.2092 6.3984199 197.172
13.3502 6.4002099 197.22701
13.4892 6.4010401 197.25301
13.6327 6.4039402 197.342
13.7749 6.4061799 197.411
13.9161 6.4079099 197.464
14.0596 6.4106698 197.55
14.2031 6.4133701 197.633
14.3441 6.4148898 197.679
14.4866 6.4170499 197.746
14.6302 6.4196501 197.826
14.7772 6.4236798 197.95
15.1099 6.4480801 198.702
15.2683 6.4565401 198.963
15.4198 6.4620099 199.132
15.5653 6.46486 199.21899
15.711 6.4677401 199.308
15.863 6.4731498 199.47501
16.017401 6.4794402 199.66901
16.178499 6.4882698 199.94099
16.361 6.5054998 200.472
16.558399 6.5283298 201.175
16.752001 6.5492401 201.82001
16.913099 6.55723 202.06599
-7.0139599 6.5786099 198.465
-6.87219 6.57516 198.36099
-6.7294202 6.57059 198.22301
-6.4449 6.5619001 197.961
-6.3022699 6.55689 197.80901
-6.1603699 6.5524201 197.675
-6.0197001 6.5490999 197.57401
-5.8787899 6.5453501 197.461
-5.7381701 6.54175 197.353
-5.59657 6.5368299 197.20399
-5.4574299 6.5346098 197.13699
-5.3180799 6.5320101 197.05901
-5.1792998 6.5300002 196.998
-5.03965 6.5267501 196.89999
-4.9015002 6.52531 196.85699
-4.7619801 6.5219302 196.755
-4.6231098 6.5192499 196.674
-4.4841199 6.5162201 196.58299
-4.3463802 6.5148902 196.54201
-4.20824 6.5128498 196.481
-4.0687699 6.5085502 196.351
-3.9303701 6.5057201 196.26601
-3.7925401 6.5036702 196.20399
-3.65363 6.4995399 196.07899
-3.51531 6.49617 195.978
-3.3771801 6.4928999 195.879
-3.2404201 6.4921198 195.855
-3.1019001 6.4875698 195.718
-2.9636199 6.48312 195.584
-2.82669 6.4813299 195.53
-2.6897099 6.47927 195.468
-2.5520501 6.4752402 195.34599
-2.4156101 6.47405 195.31
-2.27915 6.47264 195.26801
-2.1416199 6.4678102 195.12199
-2.0048201 6.4647002 195.028
-1.7325 6.4618101 194.94099
-1.596 6.45858 194.84399
-1.46006 6.4572501 194.804
-1.3238699 6.4544601 194.72
-1.1881 6.45329 194.68401
-1.05233 6.4518299 194.64
-0.91651702 6.4496002 194.573
-0.78091699 6.44838 194.536
-0.64551699 6.4486499 194.54401
-0.50992203 6.4465899 194.48199
-0.37454 6.4467001 194.485
-0.23906399 6.4444199 194.41701
-0.103699 6.4430399 194.375
0.031612199 6.4423399 194.354
0.166897 6.4417601 194.336
0.30210799 6.4401302 194.287
0.43744501 6.44137 194.32401
0.57260102 6.43998 194.283
0.70774603 6.4390302 194.254
0.84288198 6.4383101 194.23199
0.97809201 6.4382801 194.231
1.11308 6.4369798 194.192
1.24825 6.4368701 194.189
1.38348 6.4370899 194.19501
1.5184799 6.4362798 194.17101
1.65369 6.43644 194.17599
1.78882 6.4362502 194.17
1.92373 6.4354 194.144
2.05919 6.4363399 194.173
2.1942201 6.4359398 194.161
2.32901 6.4348898 194.129
2.4647901 6.4365602 194.179
2.60007 6.43681 194.187
2.7351899 6.4366598 194.18201
2.87081 6.4376502 194.21201
3.0059099 6.4374299 194.20599
3.14136 6.4379501 194.22099
3.2767401 6.4382901 194.231
3.41187 6.4381299 194.22701
3.54705 6.4380698 194.22501
3.68332 6.43993 194.28101
3.8189001 6.4404802 194.298
3.9551101 6.44203 194.34399
4.0913501 6.4435201 194.38901
4.2273598 6.4445601 194.42101
4.36269 6.44454 194.42
4.4993 6.4463501 194.47501
4.6353698 6.4473 194.50301
4.7713499 6.4480801 194.52699
4.90868 6.4506001 194.603
5.04498 6.4516501 194.63499
5.18121 6.45257 194.662
5.31813 6.4542699 194.714
5.4542699 6.4549699 194.735
5.5901799 6.4553699 194.74699
5.72686 6.4566202 194.784
5.8625202 6.4566798 194.786
5.9988298 6.4574499 194.80901
6.1357298 6.4587998 194.85001
6.4098101 6.4616098 194.935
6.5454502 6.4615502 194.933
6.6823101 6.4626698 194.967
6.8189001 6.46348 194.992
6.9548101 6.4636402 194.996
7.0932498 6.4661002 195.07001
7.2294598 6.4664698 195.082
7.3670101 6.4679899 195.12801
7.5051498 6.4699798 195.187
7.6441698 6.47264 195.26801
7.7799501 6.4725099 195.26401
7.9168601 6.4733 195.28799
8.0556803 6.4756098 195.358
8.1919003 6.47578 195.36301
8.3301096 6.4775 195.41499
8.6072903 6.4813499 195.53
8.7446499 6.4822698 195.558
8.8832703 6.4840798 195.61301
9.0209398 6.4851499 195.645
9.1586199 6.4861999 195.677
9.2958202 6.4868798 195.698
9.4345398 6.4885898 195.74899
9.5720596 6.48944 195.77499
9.7105598 6.4909201 195.819
9.8491297 6.4924002 195.864
9.9888 6.4945598 195.929
10.1273 6.4958801 195.96899
10.2654 6.4969401 196.00101
10.4041 6.4983702 196.04401
10.5434 6.5001101 196.097
10.6838 6.50247 196.168
10.8202 6.5024099 196.166
10.961 6.5048699 196.24001
11.1027 6.5078602 196.33
11.2418 6.5092802 196.373
11.3813 6.5109 196.422
11.6618 6.5148301 196.541
11.8026 6.5169902 196.606
11.9451 6.5200901 196.69901
12.0852 6.52178 196.75
12.2259 6.5237999 196.811
12.3666 6.5257401 196.87
12.5079 6.5279198 196.935
12.647 6.5289698 196.967
12.7853 6.5296001 196.98599
12.9275 6.5321298 197.062
13.0677 6.5336699 197.10899
13.2121 6.5372 197.216
13.3529 6.53894 197.26801
13.4928 6.5401802 197.30499
13.6363 6.5430899 197.39301
13.778 6.5451498 197.455
13.9201 6.5473099 197.521
14.0641 6.5503402 197.612
14.2066 6.5526099 197.681
14.3532 6.5567298 197.80499
14.4983 6.56007 197.905
14.6586 6.5701799 198.21001
14.8317 6.5857801 198.681
14.9903 6.5946999 198.95
15.1329 6.5964799 199.004
15.2802 6.6002698 199.118
15.572 6.6064701 199.30499
15.718 6.6094899 199.396
15.8797 6.61903 199.68401
16.056 6.6344299 200.149
16.237 6.6515298 200.66499
16.422701 6.6702099 201.228
16.619699 6.69315 201.92
16.781601 6.7016501 202.177
-7.01336 6.71627 198.448
-6.8725901 6.7137198 198.37199
-6.7298899 6.7091298 198.237
-6.58707 6.7042198 198.092
-6.4452 6.7000999 197.97
-6.3027701 6.6952 197.825
-6.1606398 6.6904001 197.683
-6.0204902 6.6876001 197.601
-5.7386599 6.67978 197.369
-5.5973601 6.6751199 197.23199
-5.45755 6.67207 197.142
-5.3185101 6.6698098 197.075
-5.1796498 6.6676602 197.011
-5.0403199 6.6647801 196.92599
-4.9021802 6.6633501 196.884
-4.7625599 6.65977 196.778
-4.6234798 6.6567602 196.689
-4.4843402 6.6534801 196.592
-4.3466601 6.6522198 196.55499
-4.2084298 6.6500101 196.49001
-4.0689602 6.6456299 196.36
-3.9310601 6.64359 196.3
-3.7931099 6.6413298 196.23399
-3.6540999 6.63696 196.104
-3.51546 6.6329598 195.98599
-3.3773799 6.6297302 195.89101
-3.2408099 6.6293302 195.879
-3.1019499 6.62398 195.72099
-2.96387 6.6199098 195.601
-2.6898401 6.6157498 195.478
-2.5524199 6.6122599 195.375
-2.4161301 6.6115198 195.353
-2.1419699 6.6048198 195.155
-2.00512 6.6015301 195.058
-1.86891 6.60005 195.01401
-1.73277 6.5986099 194.97099
-1.59611 6.5947599 194.85699
-1.46023 6.59374 194.827
-1.3239599 6.5905199 194.73199
-1.18821 6.58951 194.702
-1.05247 6.5882401 194.66499
-0.916668 6.5862098 194.605
-0.78108698 6.58531 194.578
-0.645621 6.5852098 194.575
-0.50997901 6.5827799 194.50301
-0.374538 6.58213 194.48399
-0.23909301 6.5806198 194.44
-0.103712 6.5792999 194.401
0.031615399 6.5783901 194.37399
0.16691799 6.57795 194.36099
0.30214599 6.5762801 194.312
0.43755701 6.5784101 194.37399
0.57265401 6.5759201 194.30099
0.70782 6.5750198 194.274
0.84308398 6.57517 194.27901
0.97829598 6.5749302 194.272
1.11327 6.5733399 194.22501
1.24856 6.57375 194.237
1.3837301 6.5735302 194.23
1.65399 6.5728698 194.211
1.78917 6.5728002 194.209
1.92408 6.5718098 194.179
2.0596099 6.5729399 194.213
2.1947899 6.5728798 194.211
2.32967 6.57196 194.18401
2.4655299 6.5737901 194.23801
2.6008301 6.5739899 194.244
2.7357199 6.5731802 194.22
2.87151 6.5745301 194.25999
3.0066099 6.5742302 194.25101
3.1420801 6.5747299 194.26601
3.2773199 6.5747399 194.26601
3.41257 6.57476 194.26601
3.54774 6.5746298 194.263
3.6840301 6.57651 194.31799
3.8194499 6.5767698 194.326
3.9561901 6.5791898 194.397
4.0925999 6.5809302 194.44901
4.2284398 6.5816698 194.47099
4.3636899 6.58146 194.465
4.5002799 6.58325 194.517
4.6364298 6.58429 194.548
4.7725101 6.5851798 194.575
4.9099798 6.5878801 194.65401
5.0458002 6.5882902 194.666
5.1819801 6.5891299 194.69099
5.4559498 6.5926399 194.795
5.5925999 6.5938601 194.83099
5.7287502 6.59446 194.849
5.8647099 6.59483 194.85899
6.0009999 6.59552 194.88
6.1374698 6.5963898 194.90601
6.2752399 6.5985799 194.97
6.4120898 6.59973 195.004
6.5468998 6.5987802 194.976
6.68326 6.5994 194.995
6.8207302 6.6010699 195.04401
6.9565001 6.6010599 195.04401
7.09554 6.6040902 195.133
7.23207 6.6047301 195.15199
7.3687901 6.6055002 195.175
7.5067201 6.6073098 195.228
7.6447101 6.6091099 195.282
7.7815599 6.60988 195.304
7.9181099 6.6103702 195.319
8.0575399 6.6132102 195.403
8.1937103 6.6133199 195.40601
8.4717999 6.6180301 195.545
8.6090002 6.6188502 195.569
8.7474804 6.6206198 195.62199
8.8850698 6.6216698 195.65199
9.0232201 6.6230998 195.69501
9.1602201 6.6236501 195.711
9.29737 6.6243 195.73
9.43713 6.62676 195.80299
9.5741901 6.6272802 195.81799
9.7119198 6.6282401 195.847
9.85116 6.6301899 195.90401
9.9895296 6.6315098 195.94299
10.2677 6.6349502 196.045
10.4064 6.6363702 196.08701
10.5456 6.6381202 196.13901
10.6852 6.6399798 196.194
10.8221 6.6401601 196.19901
10.9624 6.6424298 196.26601
11.1042 6.6455598 196.358
11.2433 6.6469698 196.39999
11.3829 6.6486402 196.45
11.524 6.6511202 196.52299
11.6636 6.65274 196.57001
11.8055 6.65557 196.65401
11.9476 6.6584501 196.739
12.0884 6.6605902 196.80299
12.2283 6.66219 196.85001
12.3699 6.6646199 196.92101
12.511 6.66676 196.985
12.6489 6.66717 196.99699
12.7865 6.6674099 197.004
12.9277 6.6695099 197.06599
13.0693 6.6717501 197.132
13.2142 6.6756401 197.24699
13.3562 6.6779599 197.31599
13.4955 6.6789298 197.34399
13.6384 6.6816401 197.425
13.7808 6.6840501 197.496
13.9224 6.6859999 197.55299
14.0648 6.6883402 197.62199
14.2125 6.69309 197.763
14.3771 6.7056699 198.134
14.5369 6.7157602 198.433
14.7012 6.7277298 198.786
14.8508 6.73283 198.937
14.9977 6.7365999 199.048
15.143 6.7395802 199.136
15.4367 6.7467799 199.349
15.5845 6.75069 199.465
15.7476 6.7610998 199.772
15.9253 6.7775502 200.258
16.099001 6.7920198 200.686
16.4865 6.8368101 202.00999
-7.01437 6.8554802 198.476
-6.87216 6.85145 198.36
-6.7298598 6.8471699 198.23599
-6.5868301 6.8419499 198.084
-6.44489 6.8376598 197.96001
-6.30338 6.8336501 197.84399
-6.1610599 6.8285699 197.69701
-6.02004 6.8247099 197.586
-5.7379899 6.8164601 197.347
-5.59759 6.8127899 197.24001
-5.4576302 6.8094702 197.144
-5.3183899 6.8069201 197.07001
-5.1794801 6.8046699 197.005
-5.0405402 6.8022499 196.935
-4.9015398 6.7996101 196.85899
-4.76297 6.79742 196.795
-4.6240301 6.79458 196.713
-4.4852099 6.7917299 196.631
-4.3474898 6.7904301 196.593
-4.2090702 6.78791 196.52
-4.0699501 6.78404 196.408
-3.9314001 6.78091 196.317
-3.7931299 6.7780399 196.23399
-3.6542699 6.77387 196.114
-3.51524 6.7690401 195.974
-3.3779099 6.7672501 195.922
-3.24087 6.7658801 195.882
-3.1025801 6.7616801 195.761
-2.96454 6.7576699 195.645
-2.82705 6.75459 195.55499
-2.6898601 6.7519498 195.479
-2.5529599 6.7497802 195.416
-2.4161201 6.74753 195.351
-2.2795701 6.7458901 195.304
-2.1420901 6.7410998 195.16499
-2.0053301 6.7381201 195.078
-1.86902 6.73628 195.02499
-1.73281 6.73458 194.976
-1.5963399 6.7314501 194.88499
-1.46049 6.7306099 194.86099
-1.32427 6.7277699 194.77901
-1.18847 6.7265801 194.744
-1.05257 6.7244701 194.683
-0.91673398 6.72224 194.619
-0.781156 6.7214398 194.59599
-0.64571202 6.7216802 194.603
-0.51011199 6.7200098 194.554
-0.37459299 6.7185798 194.513
-0.23912001 6.7168102 194.46201
-0.103738 6.7163301 194.448
0.031620201 6.7147799 194.403
0.16692799 6.7137299 194.37199
0.30222601 6.7133999 194.36301
0.43759599 6.7143898 194.392
0.57267398 6.7114801 194.30701
0.707892 6.71102 194.29401
0.84328902 6.7121301 194.326
0.978441 6.7112398 194.3
1.1134501 6.7097001 194.256
1.24878 6.7102699 194.272
1.38392 6.7097702 194.258
1.5189199 6.7087102 194.22701
1.65406 6.7084198 194.21899
1.78944 6.7090802 194.23801
1.92439 6.7081499 194.211
2.0599699 6.7093701 194.246
2.1951101 6.7091198 194.239
2.33022 6.7087998 194.23
2.46596 6.7102299 194.271
2.60128 6.7104402 194.27699
2.73664 6.7107201 194.285
2.8720801 6.7111602 194.298
3.0074501 6.71141 194.30499
3.1426899 6.71134 194.30299
3.27808 6.7115998 194.311
3.41345 6.7118101 194.317
3.5483799 6.7111602 194.298
3.6853499 6.7142601 194.388
3.8208699 6.7146101 194.39799
3.95701 6.7159901 194.438
4.0942202 6.7190199 194.526
4.2294598 6.71874 194.51801
4.3650198 6.7189698 194.524
4.5015502 6.7206202 194.57201
4.6374698 6.7213001 194.592
4.7736502 6.7223201 194.621
4.9109201 6.7247601 194.692
5.0472102 6.72576 194.72099
5.32201 6.7304201 194.856
5.4580002 6.7308502 194.868
5.5942502 6.7315602 194.88901
5.7304201 6.7321401 194.90601
5.8670301 6.7332001 194.936
6.0025101 6.7329602 194.929
6.1399202 6.7348299 194.983
6.2764401 6.7356701 195.008
6.4130001 6.7365198 195.032
6.5486102 6.7363501 195.02699
6.6849098 6.7368798 195.043
6.8239899 6.74014 195.13699
6.9586601 6.7389998 195.104
7.0975699 6.74194 195.189
7.23457 6.74298 195.21899
7.3705401 6.7430401 195.22099
7.5091901 6.7455201 195.293
7.6458902 6.74617 195.312
7.7814999 6.7458601 195.30299
7.9193802 6.7474999 195.35001
8.0584402 6.7500701 195.425
8.1956997 6.75107 195.45399
8.3351603 6.7538199 195.533
8.4731302 6.75529 195.576
8.6107702 6.7564602 195.61
8.7496796 6.7585702 195.67101
8.8873997 6.7597198 195.70399
9.0250502 6.7607799 195.73399
9.1613798 6.7608199 195.73599
9.2989902 6.7617998 195.76401
9.4383297 6.7639999 195.828
9.5764198 6.7652502 195.864
9.7131796 6.7655301 195.87199
9.8527002 6.7677002 195.935
9.9895 6.7679801 195.94299
10.1303 6.7708802 196.02699
10.2697 6.7728601 196.084
10.4084 6.77425 196.125
10.5469 6.7755699 196.16299
10.6852 6.77665 196.194
10.8235 6.77774 196.226
10.9625 6.7791901 196.26801
11.1047 6.7825799 196.366
11.2446 6.7845502 196.423
11.385 6.7866902 196.485
11.5268 6.78965 196.57001
11.6664 6.7912502 196.617
11.8073 6.79356 196.68401
11.9495 6.7966199 196.772
12.0904 6.79879 196.83501
12.2312 6.80089 196.896
12.3736 6.8038402 196.981
12.5126 6.8048201 197.00999
12.6498 6.8048801 197.011
12.7897 6.8063302 197.05299
12.9298 6.8078899 197.09801
13.0722 6.8105602 197.17599
13.2173 6.8146 197.293
13.3571 6.8158598 197.32899
13.4976 6.81743 197.375
13.6417 6.8207898 197.472
13.7833 6.8228302 197.53101
13.9206 6.8227401 197.52901
14.0816 6.8341198 197.858
14.2554 6.85149 198.36099
14.4114 6.8600202 198.608
14.5608 6.8652301 198.759
14.7085 6.8695898 198.88499
14.8568 6.8741798 199.01801
15.0033 6.87783 199.123
15.2961 6.88483 199.326
15.459 6.8955598 199.63699
15.6217 6.9060798 199.94099
15.7871 6.9175501 200.27299
15.9727 6.9375901 200.854
16.1842 6.9684701 201.748
16.354 6.9809999 202.11
16.506201 6.9858599 202.25101
-7.01405 6.9934101 198.467
-6.8715901 6.9890399 198.343
-6.7292199 6.98458 198.217
-6.5868001 6.9798899 198.084
-6.4455299 6.9762402 197.98
-6.3035798 6.9716802 197.851
-6.1614499 6.9667101 197.71001
-6.02037 6.9627199 197.59599
-5.8793602 6.9586301 197.48
-5.73842 6.9544401 197.36099
-5.5982399 6.9509702 197.263
-5.45819 6.9475098 197.16499
-5.3192501 6.9453001 197.10201
-5.1796899 6.9421701 197.013
-5.0403399 6.9391298 196.927
-4.90241 6.9379401 196.89301
-4.7638001 6.9356999 196.83
-4.62464 6.9325099 196.739
-4.34834 6.92871 196.631
-4.2095399 6.92556 196.54201
-4.07026 6.92137 196.423
-3.9318299 6.9184098 196.339
-3.7936399 6.9156599 196.261
-3.6545999 6.9110899 196.131
-3.5157101 6.9064598 196
-3.3782799 6.90446 195.94299
-3.2412801 6.9032001 195.907
-3.10325 6.8995299 195.80299
-2.9651101 6.8952599 195.68201
-2.8275399 6.8920002 195.589
-2.6903501 6.8893499 195.51401
-2.5531099 6.8862901 195.42799
-2.4164801 6.8846402 195.381
-2.2797401 6.8824601 195.319
-2.1422801 6.8776698 195.183
-2.0056701 6.8751702 195.112
-1.86932 6.87323 195.05701
-1.73286 6.8705802 194.98199
-1.59655 6.8681202 194.912
-1.46073 6.8674898 194.894
-1.3245 6.8645802 194.811
-1.05268 6.8608198 194.70399
-0.91684502 6.8586302 194.642
-0.78133899 6.8585801 194.64101
-0.64582998 6.85848 194.638
-0.51020902 6.8568201 194.591
-0.23917601 6.8538699 194.507
-0.103758 6.8530898 194.485
0.031625401 6.8513098 194.435
0.166953 6.8501601 194.40199
0.30226001 6.8495698 194.38499
0.43766099 6.8508101 194.42101
0.70805103 6.8478799 194.33701
0.84341198 6.8484702 194.354
0.97861999 6.8478298 194.336
1.11361 6.8460302 194.285
1.24888 6.8461299 194.28799
1.38405 6.8456702 194.27499
1.51919 6.8452001 194.261
1.65416 6.8441401 194.231
1.78973 6.84547 194.269
1.9248101 6.8449202 194.25301
2.06041 6.8461299 194.28799
2.3306501 6.8453698 194.26601
2.4662199 6.8462701 194.29201
2.6017399 6.8469701 194.312
2.73715 6.8473201 194.32201
2.87269 6.84794 194.339
3.0079701 6.8479199 194.338
3.1431899 6.8477802 194.334
3.27929 6.8494701 194.383
3.41433 6.8489099 194.367
3.5494101 6.8484802 194.354
3.6862299 6.8513098 194.435
3.8218901 6.85184 194.45
3.9581201 6.8533301 194.492
4.09477 6.8554301 194.552
4.2306399 6.8561401 194.57201
4.3662 6.8562999 194.576
4.9116402 6.8613701 194.72
5.04809 6.8625798 194.755
5.18505 6.8644199 194.80701
5.32302 6.8674598 194.89301
5.4591699 6.8680501 194.91
5.5959902 6.8694401 194.94901
5.7313099 6.8689699 194.936
5.8685899 6.87081 194.98801
6.00495 6.87152 195.008
6.1417999 6.8727398 195.043
6.2787199 6.8739901 195.078
6.4145899 6.8740602 195.08
6.5496998 6.8733401 195.06
6.6858902 6.8737502 195.071
6.8253102 6.8773899 195.175
6.9600902 6.8763199 195.144
7.0989499 6.87924 195.22701
7.2362499 6.8805599 195.265
7.37187 6.88026 195.256
7.5107598 6.8829699 195.33299
7.6473999 6.8835702 195.35001
7.7823501 6.8826399 195.32401
7.9204502 6.8845 195.377
8.0599403 6.8874602 195.461
8.19699 6.8882899 195.48399
8.3360701 6.89077 195.554
8.47367 6.8919601 195.588
8.6114998 6.8933001 195.62601
8.75105 6.8959398 195.701
8.8891497 6.8973899 195.742
9.0267296 6.8983898 195.771
9.1632605 6.8985801 195.776
9.3003702 6.8991899 195.793
9.4397802 6.9014502 195.858
9.5773802 6.90236 195.884
9.7143698 6.9028101 195.896
9.8538303 6.9049702 195.957
10.1315 6.9082398 196.05
10.2707 6.91009 196.103
10.4092 6.9113998 196.14
10.5484 6.9131298 196.189
10.6865 6.9141402 196.218
10.8244 6.9149399 196.241
10.9635 6.9165301 196.286
11.1051 6.91961 196.373
11.2452 6.9217401 196.433
11.3876 6.9251399 196.53
11.5294 6.9281502 196.61501
11.6683 6.9293399 196.649
11.8077 6.93083 196.69099
11.9507 6.93432 196.78999
12.0927 6.9371901 196.87199
12.2335 6.9393501 196.933
12.375 6.9418402 197.004
12.5147 6.9432302 197.043
12.6524 6.9435401 197.052
12.7921 6.94488 197.09
12.9327 6.9467001 197.142
13.0761 6.9499698 197.235
13.2182 6.9525199 197.30701
13.3593 6.9544802 197.36301
13.5035 6.9579802 197.46201
13.6484 6.9617801 197.57001
13.7997 6.9686999 197.76601
14.1245 6.9931798 198.461
14.2743 6.99891 198.623
14.4227 7.0038199 198.763
14.5701 7.0081501 198.886
14.7147 7.0110998 198.96899
14.8653 7.0167999 199.131
15.0112 7.0201802 199.22701
15.1614 7.0255299 199.379
15.337 7.04245 199.85899
15.6576 7.0615401 200.401
16.056299 7.1145701 201.90601
16.223301 7.1261501 202.235
16.372801 7.12995 202.342
-7.0137501 7.13135 198.459
-6.87114 7.12672 198.33
-6.72891 7.1223302 198.20799
-6.5865402 7.1175799 198.076
-6.44524 7.1138101 197.97099
-6.3035102 7.1093998 197.84801
-6.1621099 7.1051798 197.731
-6.02108 7.1011901 197.62
-5.8797302 7.0966301 197.493
-5.73908 7.09272 197.384
-5.5984902 7.0886898 197.272
-5.3195701 7.0830202 197.114
-5.18045 7.08042 197.04201
-5.0411701 7.0774698 196.96001
-4.90277 7.0756102 196.908
-4.7642202 7.07342 196.847
-4.625 7.0700798 196.754
-4.4862099 7.0672202 196.674
-4.3491001 7.0668998 196.66499
-4.2100601 7.0633302 196.56599
-4.0708499 7.0592299 196.452
-3.9324601 7.0562901 196.37
-3.7941899 7.05338 196.289
-3.6549101 7.0482998 196.14799
-3.5158899 7.0433602 196.00999
-3.37866 7.0417299 195.965
-3.24157 7.0402799 195.925
-2.96545 7.0323901 195.705
-2.8278301 7.0289402 195.60899
-2.5533199 7.0230098 195.444
-2.4167099 7.0214 195.399
-2.2799799 7.0192299 195.339
-2.1426401 7.0147901 195.215
-2.0058899 7.0118198 195.133
-1.86953 7.0098801 195.07899
-1.73291 7.0065799 194.987
-1.59677 7.0048099 194.938
-1.46101 7.00458 194.931
-1.32472 7.0014701 194.845
-1.18876 6.9995699 194.79201
-1.0529701 6.9983602 194.758
-0.917036 6.9956598 194.683
-0.78147602 6.9953799 194.675
-0.64596301 6.9954901 194.67799
-0.510337 6.9941101 194.64
-0.37478599 6.9931402 194.61301
-0.239236 6.9910998 194.556
-0.103773 6.9896002 194.51401
0.031629998 6.9877601 194.463
0.166996 6.98734 194.452
0.30231899 6.98632 194.423
0.43771201 6.98703 194.44299
0.572891 6.9848099 194.381
0.70813602 6.9840798 194.36099
0.84346598 6.9843001 194.367
0.97869498 6.9837298 194.351
1.11365 6.9815602 194.28999
1.24896 6.9818702 194.299
1.38403 6.9808898 194.272
1.51931 6.98106 194.27699
1.65438 6.98036 194.257
1.7899899 6.9818101 194.298
1.92524 6.9817901 194.297
2.0608399 6.9829302 194.32899
2.19608 6.98278 194.325
2.3310599 6.9819002 194.3
2.4667301 6.9830599 194.332
2.6024499 6.98421 194.364
2.73804 6.9849401 194.38499
2.87328 6.9847498 194.379
3.0086901 6.9849601 194.38499
3.14364 6.9841299 194.362
3.4152999 6.98628 194.422
3.5504899 6.98596 194.41299
3.68715 6.9884701 194.483
3.82287 6.98908 194.5
4.0954399 6.9920998 194.584
4.2315602 6.9931898 194.614
4.3675599 6.99401 194.63699
4.5043502 6.9960198 194.69299
4.6397901 6.9958701 194.689
4.7758899 6.9967098 194.71201
4.9124498 6.9981399 194.752
5.0495701 7.0002899 194.812
5.18679 7.00245 194.87199
5.3243799 7.0049801 194.942
5.4606099 7.0056601 194.961
5.5971198 7.00664 194.98801
5.7330198 7.0068302 194.994
5.87041 7.0088 195.049
6.0076799 7.01054 195.097
6.1428399 7.0097799 195.076
6.2797098 7.0109701 195.10899
6.41605 7.0115399 195.125
6.5515499 7.0111799 195.11501
6.6872101 7.0110002 195.11
6.8272099 7.0152898 195.229
6.96244 7.0145998 195.21001
7.1004901 7.0167298 195.269
7.2376099 7.01788 195.30099
7.37363 7.01794 195.30299
7.5121899 7.02037 195.371
7.64783 7.02003 195.36099
7.7831802 7.0194402 195.345
7.9222798 7.0222001 195.422
8.0617304 7.0251698 195.504
8.1984701 7.0257201 195.519
8.3372297 7.0279498 195.582
8.4747896 7.02911 195.614
8.6120996 7.0300398 195.64
8.7525902 7.0334902 195.73599
8.8904305 7.03474 195.771
9.0287905 7.0363598 195.815
9.1650801 7.0363302 195.815
9.3021097 7.03688 195.83
9.4418097 7.0393901 195.89999
9.57864 7.0397301 195.909
9.7160101 7.0404401 195.929
9.8552704 7.04249 195.98599
9.9931202 7.0434899 196.01401
10.1328 7.0457501 196.077
10.272 7.0475502 196.127
10.4102 7.0487299 196.16
10.5491 7.0502701 196.203
10.6871 7.0512099 196.229
10.8252 7.0521598 196.255
10.9653 7.05441 196.31799
11.1054 7.0565801 196.37801
11.2465 7.05933 196.455
11.3891 7.0629601 196.556
11.5305 7.0657601 196.634
11.6696 7.0671301 196.672
11.8086 7.0683498 196.70599
11.9512 7.0716901 196.799
12.0942 7.0752001 196.897
12.2356 7.0777202 196.967
12.3771 7.0802202 197.036
12.516 7.0812101 197.064
12.6542 7.0817599 197.07899
12.7948 7.0836601 197.132
12.9357 7.08568 197.188
13.2222 7.0920901 197.366
13.3713 7.0982699 197.539
13.5241 7.1063299 197.763
13.684 7.1179099 198.08501
13.8371 7.12572 198.302
13.9848 7.13063 198.439
14.1314 7.1349201 198.55901
14.2783 7.1392498 198.679
14.4278 7.1447802 198.83299
14.5747 7.1489301 198.948
14.7191 7.1518402 199.02901
15.0279 7.1669202 199.44901
15.2178 7.19104 200.12
15.3785 7.2010598 200.399
15.5367 7.2097502 200.64101
15.7541 7.2454801 201.63499
15.9332 7.2631302 202.12601
16.0914 7.27106 202.347
16.2363 7.2728601 202.397
-7.0134702 7.26928 198.451
-6.8716502 7.2654099 198.345
-6.7294202 7.2609301 198.22301
-6.5870399 7.2560902 198.091
-6.4444299 7.2507901 197.946
-6.3034701 7.24717 197.847
-6.1623902 7.2432299 197.74001
-6.0211401 7.2389102 197.62199
-5.8794999 7.2339101 197.485
-5.7392001 7.23035 197.388
-5.5985098 7.22613 197.27299
-5.4588799 7.2230902 197.19
-5.3196001 7.2203598 197.11501
-5.1806502 7.2179499 197.05
-5.04175 7.2154799 196.98199
-4.7644701 7.2109098 196.85699
-4.6252799 7.2075701 196.76601
-4.48668 7.2049599 196.69501
-4.34973 7.2049398 196.694
-4.21065 7.2012501 196.59399
-4.0715699 7.19732 196.48599
-3.9331601 7.1943498 196.405
-3.79422 7.1901498 196.291
-3.65503 7.1851501 196.15401
-3.51613 7.1803598 196.02299
-3.3791001 7.1791501 195.99001
-3.24212 7.1779599 195.95799
-3.10359 7.17309 195.825
-2.9658599 7.1696801 195.73199
-2.82829 7.1663499 195.64101
-2.6907699 7.1628399 195.545
-2.55338 7.1592999 195.448
-2.4168301 7.1578498 195.409
-2.2801399 7.1557899 195.353
-2.1429701 7.1518798 195.246
-2.00617 7.1487498 195.16
-1.86974 7.1465602 195.101
-1.73316 7.1434398 195.015
-1.597 7.1416402 194.966
-1.4613 7.1417398 194.96899
-1.32505 7.1389699 194.89301
-1.1891 7.13731 194.84801
-1.0531 7.1349001 194.782
-0.91720903 7.1326098 194.72
-0.781573 7.1318598 194.69901
-0.64605403 7.1320901 194.70599
-0.51044297 7.1311798 194.681
-0.374845 7.1298299 194.644
-0.23929 7.1282401 194.60001
-0.103785 7.1259198 194.537
0.031637199 7.1248498 194.508
0.167013 7.1235399 194.472
0.302347 7.1223898 194.44099
0.43773699 7.12288 194.45399
0.57291001 7.12043 194.38699
0.70818299 7.1199398 194.37399
0.97886503 7.1203399 194.38499
1.11382 7.11799 194.321
1.24907 7.1178198 194.31599
1.3842 7.1171198 194.297
1.51949 7.1172299 194.3
1.65468 7.11692 194.291
1.79037 7.11866 194.339
1.9256001 7.1184402 194.33299
2.0613401 7.1199899 194.375
2.19648 7.1194301 194.36
2.3313401 7.1180801 194.323
2.46751 7.1206698 194.394
2.60306 7.1212702 194.41
2.7386899 7.1220198 194.431
2.87427 7.1225801 194.446
3.0095201 7.1223202 194.439
3.14431 7.1210399 194.40401
3.2811 7.1241899 194.49001
3.4162099 7.1236 194.474
3.6879001 7.12538 194.522
3.82342 7.1255698 194.528
3.9599199 7.1275101 194.58099
4.0964098 7.1293001 194.63
4.2319598 7.1294098 194.632
4.3685398 7.1311798 194.681
4.5049701 7.1326098 194.72
4.6407499 7.1329598 194.729
4.77669 7.1335201 194.745
4.9133801 7.1351399 194.789
5.0506001 7.1374302 194.851
5.1884699 7.1404901 194.935
5.32549 7.1422601 194.983
5.46173 7.14292 195.00101
5.5982599 7.1439199 195.028
5.73417 7.1440802 195.033
5.8724298 7.14712 195.116
6.1445498 7.1476498 195.13
6.2816901 7.1491299 195.17101
6.4180698 7.1496902 195.186
6.5525999 7.1482201 195.146
6.6887999 7.1486001 195.15601
6.8279901 7.1520901 195.25101
6.9643002 7.1524901 195.26199
7.1019702 7.1542301 195.31
7.2394099 7.1556902 195.35001
7.5127802 7.1570101 195.386
7.6486001 7.1568198 195.381
7.7845802 7.1567998 195.38
7.9239802 7.1598501 195.464
8.0627699 7.1622701 195.52901
8.2003002 7.1634998 195.563
8.33885 7.1655698 195.62
8.4763203 7.1666598 195.649
8.6128998 7.1669698 195.658
8.7528601 7.1700501 195.742
8.89118 7.1717 195.787
9.0300398 7.1737399 195.843
9.1664 7.1737599 195.843
9.3044901 7.1751099 195.88
9.4434204 7.1770601 195.933
9.5806999 7.1777201 195.951
9.7172499 7.1778202 195.95399
9.8557396 7.1793399 195.995
9.9927397 7.17974 196.006
10.1334 7.1827102 196.08701
10.273 7.1848698 196.147
10.4109 7.1858001 196.172
10.5496 7.1872702 196.21201
10.6871 7.1879001 196.229
10.8257 7.1892099 196.265
10.9656 7.19138 196.32401
11.1055 7.19345 196.381
11.2468 7.1963501 196.46001
11.3897 7.2002802 196.567
11.5304 7.2026501 196.632
11.6704 7.2046099 196.685
11.8097 7.2060499 196.72501
11.9517 7.2090802 196.80701
12.0953 7.2130399 196.916
12.235 7.21456 196.957
12.3775 7.21773 197.04401
12.5191 7.2202902 197.11301
12.6564 7.2202802 197.11301
12.8017 7.2248502 197.23801
12.9504 7.2312002 197.411
13.1007 7.2383399 197.606
13.2485 7.2439098 197.758
13.3991 7.2509198 197.95
13.5486 7.2571802 198.121
13.6944 7.2613802 198.235
13.9869 7.2699699 198.47
14.1345 7.2747898 198.601
14.2847 7.28087 198.767
14.4315 7.28513 198.884
14.5761 7.2882199 198.968
14.9151 7.3186498 199.799
15.0971 7.3394799 200.367
15.2515 7.3466702 200.564
15.6461 7.4012599 202.054
15.8059 7.4102101 202.298
15.9556 7.41435 202.411
16.1047 7.4181299 202.51401
-7.0132899 7.40732 198.446
-6.8720798 7.4040198 198.358
-6.7301302 7.3997798 198.244
-6.5872698 7.39433 198.09801
-6.44455 7.3888102 197.95
-6.3035102 7.3850198 197.849
-6.02214 7.37778 197.65401
-5.8807998 7.3730898 197.52901
-5.7396698 7.3684502 197.40401
-5.5994902 7.36481 197.30701
-5.4597402 7.3615799 197.22099
-5.3205099 7.3589201 197.149
-5.18121 7.3559999 197.071
-5.0424299 7.3536801 197.009
-4.9041901 7.3520398 196.965
-4.7653899 7.3494401 196.895
-4.6258001 7.3454399 196.78799
-4.4871502 7.34273 196.715
-4.3502202 7.3427501 196.716
-4.2109299 7.3386598 196.60699
-4.0717402 7.3344898 196.495
-3.9335599 7.3318901 196.425
-3.7945299 7.3274798 196.30701
-3.6554101 7.3225598 196.175
-3.51671 7.31811 196.056
-3.37953 7.3165998 196.015
-3.2425599 7.3154402 195.98399
-3.10375 7.3098502 195.83501
-2.9661801 7.3067899 195.75301
-2.82848 7.3031201 195.65401
-2.6909699 7.2995701 195.55901
-2.55369 7.2963099 195.472
-2.4170799 7.2947001 195.429
-2.28022 7.29212 195.36
-2.00667 7.2864799 195.209
-1.87003 7.2835698 195.131
-1.73341 7.2803202 195.04401
-1.5971 7.2778802 194.978
-1.46146 7.2783499 194.991
-1.32535 7.27632 194.936
-1.18924 7.27385 194.87
-1.0532 7.2712102 194.8
-0.91739899 7.2697401 194.75999
-0.78171301 7.2687702 194.73399
-0.64613098 7.26858 194.729
-0.510548 7.26827 194.72099
-0.37490299 7.26652 194.674
-0.23934001 7.2652798 194.64101
-0.103803 7.26265 194.57001
0.031642798 7.2616 194.54201
0.167032 7.25982 194.494
0.302394 7.2589598 194.47099
0.43777099 7.2588801 194.46899
0.57305002 7.2575998 194.435
0.70823503 7.2558498 194.388
0.84369802 7.2570601 194.42
1.11401 7.2546 194.354
1.2492599 7.2542701 194.34599
1.38447 7.25383 194.334
1.51949 7.2525601 194.3
1.65486 7.2530499 194.313
1.79064 7.2550998 194.368
1.92601 7.2553201 194.37399
2.0617499 7.2568402 194.414
2.197 7.2565398 194.40601
2.33201 7.2555399 194.379
2.4681599 7.2579699 194.44501
2.6035199 7.2579598 194.44501
2.73928 7.2590098 194.47301
2.87485 7.25948 194.485
3.0100801 7.25911 194.47501
3.1456001 7.2594099 194.483
3.2820201 7.2617002 194.545
3.41713 7.2610102 194.526
3.5529001 7.2617202 194.545
3.6889999 7.2630401 194.58099
3.8243699 7.2628798 194.576
3.9608901 7.2648201 194.62801
4.0972099 7.2663002 194.668
4.2327399 7.2663202 194.668
4.3692398 7.2679501 194.71201
4.5061898 7.2702198 194.77299
4.6418099 7.2702498 194.774
4.7781 7.2713099 194.802
4.91465 7.2726998 194.839
5.0518699 7.2749901 194.901
5.1904101 7.2789898 195.008
5.3267002 7.2797298 195.028
5.4629002 7.2803001 195.043
5.5994101 7.28124 195.06799
5.7357101 7.2818799 195.08501
5.8740101 7.2849798 195.168
6.0116301 7.2871099 195.22501
6.1469498 7.2864099 195.207
6.2838502 7.28758 195.23801
6.41959 7.2873802 195.233
6.5538101 7.28549 195.18201
6.6901498 7.2859998 195.196
6.82935 7.2895398 195.28999
6.9663901 7.2906699 195.321
7.10361 7.2919502 195.355
7.2409701 7.2933302 195.392
7.3766499 7.2929902 195.383
7.5135698 7.29387 195.407
7.6493301 7.2936101 195.39999
7.7858601 7.2940798 195.412
7.9258299 7.2976999 195.509
8.06355 7.29917 195.548
8.20117 7.3004899 195.584
8.3396997 7.3025699 195.63901
8.4768696 7.3034101 195.662
8.6134396 7.30372 195.67
8.7536297 7.3070302 195.759
8.8921099 7.3088398 195.808
9.0298796 7.31002 195.839
9.1673098 7.3108902 195.86301
9.4449997 7.3147602 195.966
9.58144 7.3147802 195.967
9.7179003 7.3147998 195.967
9.8562202 7.3162098 196.005
9.9933596 7.31672 196.019
10.1337 7.31951 196.093
10.2734 7.3217802 196.15401
10.4105 7.3221898 196.16499
10.5501 7.3242998 196.222
10.6871 7.3245802 196.229
10.826 7.3260899 196.27
10.9652 7.3278098 196.31599
11.1058 7.33043 196.386
11.2465 7.3330498 196.45599
11.3897 7.3372002 196.567
11.5299 7.3393302 196.62399
11.6699 7.34129 196.677
11.8085 7.34231 196.70399
11.9512 7.34586 196.799
12.0952 7.3501301 196.914
12.2391 7.3541999 197.02299
12.3804 7.3566699 197.089
12.522 7.3592701 197.158
12.8156 7.3702202 197.452
13.1131 7.3829398 197.793
13.2624 7.3894401 197.967
13.4088 7.3941498 198.093
13.5558 7.3990998 198.226
13.7006 7.4028101 198.325
13.8506 7.4092102 198.496
13.9934 7.4116402 198.562
14.1404 7.4162202 198.68401
14.2926 7.42345 198.87801
14.446 7.43115 199.084
14.8072 7.4735198 200.21899
14.9621 7.4812698 200.427
15.1357 7.4981999 200.88
15.346 7.5327401 201.806
15.5244 7.5511799 202.3
15.6738 7.5553498 202.412
15.822 7.5588298 202.505
15.9702 7.5622201 202.59599
-7.0137801 7.5460701 198.46001
-6.8727999 7.5429802 198.37801
-6.7308302 7.53864 198.26401
-6.5881701 7.53333 198.125
-6.4461498 7.5285602 197.99899
-6.3045602 7.5240798 197.881
-6.1634402 7.5199699 197.77299
-6.0230699 7.5166101 197.685
-5.8824701 7.5128002 197.58501
-5.7412701 7.50804 197.459
-5.60109 7.5043998 197.364
-5.4612298 7.5010099 197.27499
-5.3212099 7.49722 197.175
-5.1818299 7.4941602 197.095
-5.0433002 7.4921899 197.043
-4.9045401 7.4897699 196.979
-4.7653198 7.4864802 196.89301
-4.62607 7.4829402 196.8
-4.4875698 7.4804502 196.73399
-4.3504701 7.4801998 196.728
-4.2112098 7.47611 196.62
-4.0718098 7.4714799 196.498
-3.93345 7.4685001 196.42
-3.79476 7.4646702 196.319
-3.6558399 7.4600701 196.198
-3.51723 7.45577 196.08501
-3.37991 7.45398 196.03799
-3.2428801 7.4527001 196.004
-3.1043401 7.44767 195.87199
-2.9667599 7.4445901 195.791
-2.8290601 7.4409099 195.694
-2.69118 7.4363699 195.575
-2.5539999 7.4333701 195.496
-2.4175999 7.4324398 195.47099
-2.2804401 7.4288902 195.37801
-2.14328 7.4249401 195.274
-2.0068099 7.4229898 195.22301
-1.8703001 7.4205799 195.159
-1.7337199 7.4175 195.078
-1.46165 7.4151502 195.017
-1.3255301 7.4131498 194.964
-1.18946 7.4109602 194.90601
-1.0534199 7.4084902 194.841
-0.78185999 7.4057999 194.771
-0.646245 7.40552 194.763
-0.51062298 7.4049802 194.74899
-0.37491 7.4022498 194.677
-0.239372 7.4018302 194.666
-0.103816 7.3990798 194.59399
0.0316489 7.39854 194.58
0.16704901 7.3960299 194.51401
0.30244499 7.3956699 194.504
0.43781099 7.39501 194.487
0.57314402 7.3942399 194.467
0.70832998 7.39224 194.414
0.84388 7.3940601 194.46201
0.97914201 7.3932099 194.44
1.1142401 7.3914499 194.39301
1.24953 7.3912702 194.388
1.38489 7.3914299 194.39301
1.5197901 7.38939 194.339
1.65518 7.3898001 194.35001
1.79107 7.3922701 194.41499
1.92633 7.3919501 194.40601
2.06216 7.3937101 194.453
2.19736 7.3931699 194.438
2.3327 7.3931098 194.437
2.4686799 7.3949499 194.485
2.6043899 7.3958702 194.50999
2.7400301 7.3964901 194.526
2.87536 7.3962598 194.52
3.0106699 7.3959999 194.513
3.14676 7.3976102 194.55499
3.2830999 7.3996301 194.608
3.4181199 7.3986502 194.58299
3.5539701 7.3994598 194.604
3.6901 7.4007802 194.63901
3.82533 7.40025 194.625
3.9618299 7.4021502 194.675
4.0982499 7.40376 194.717
4.23382 7.4038 194.718
4.3706498 7.4059601 194.77499
4.5078001 7.4085302 194.842
4.6434398 7.4085302 194.842
4.7796602 7.40942 194.866
4.9159598 7.4103899 194.89101
5.0537 7.4134302 194.97099
5.3287101 7.4183602 195.101
5.7376699 7.4203 195.15199
5.8755202 7.4228301 195.218
6.01301 7.4247899 195.27
6.1484399 7.42418 195.254
6.28513 7.4250798 195.278
6.4211402 7.4251599 195.28
6.6914902 7.42345 195.235
6.8308702 7.4272099 195.334
6.9678998 7.4283299 195.36301
7.1046 7.42906 195.382
7.2418699 7.4303498 195.416
7.3777399 7.4301801 195.412
7.5141401 7.4305401 195.42101
7.64995 7.4303098 195.41499
7.78688 7.43116 195.438
7.9265199 7.4345298 195.526
8.0636501 7.4354601 195.55099
8.2014999 7.4370198 195.592
8.3399897 7.4390998 195.646
8.4770203 7.4398298 195.666
8.6132202 7.4398098 195.66499
8.7544298 7.4440699 195.77699
8.8925104 7.44556 195.81599
9.0295696 7.4461799 195.83299
9.1675196 7.4474902 195.867
9.4455996 7.4517298 195.979
9.5823002 7.4519401 195.98399
9.7189703 7.4521198 195.989
9.8571501 7.4534302 196.02299
9.9934196 7.45329 196.02
10.1341 7.4563899 196.101
10.2735 7.4584699 196.15601
10.4109 7.4591198 196.173
10.5509 7.4615302 196.23599
10.6876 7.4616199 196.239
10.8263 7.4630198 196.27499
10.9646 7.46415 196.30499
11.1044 7.4662499 196.36
11.245 7.4689002 196.42999
11.3894 7.4738698 196.561
11.53 7.4763598 196.62601
11.6695 7.4779902 196.66901
11.8074 7.4786401 196.686
11.952 7.4834599 196.813
12.0962 7.4879198 196.92999
12.2403 7.4921899 197.043
12.3868 7.4978399 197.19099
12.5336 7.50352 197.341
12.6794 7.5085201 197.472
12.8235 7.5123701 197.57401
12.9743 7.5200901 197.77699
13.1218 7.5257001 197.924
13.2708 7.5320802 198.092
13.4173 7.5369101 198.21899
13.5637 7.5415802 198.342
13.7094 7.5457602 198.452
13.8532 7.5488601 198.533
14 7.5534701 198.65401
14.3264 7.5798302 199.34801
14.5247 7.6110501 200.16901
14.6908 7.6249099 200.533
14.8609 7.6406002 200.946
15.0538 7.6676102 201.65601
15.241 7.6912298 202.27699
15.3977 7.6991701 202.48599
15.5455 7.70257 202.576
15.6909 7.70473 202.632
-7.01439 7.6849699 198.47701
-6.87361 7.6820502 198.40199
-6.7315998 7.6776099 198.287
-6.5890198 7.6723299 198.151
-6.4471002 7.6676002 198.028
-6.30514 7.6626201 197.89999
-6.1641798 7.6586499 197.797
-6.0237999 7.6552401 197.709
-5.8832302 7.6514201 197.61
-5.74231 7.6469598 197.495
-5.6024199 7.6436701 197.41
-5.4619498 7.63942 197.30099
-5.3217702 7.6353698 197.196
-5.18261 7.6325898 197.12399
-5.04386 7.63029 197.065
-4.9047699 7.6273198 196.98801
-4.7654901 7.6238899 196.89999
-4.6264601 7.6206698 196.81599
-4.4879498 7.6181202 196.75101
-4.3505998 7.6174502 196.733
-4.2115002 7.6135898 196.633
-4.0719299 7.6085801 196.504
-3.93378 7.6059499 196.436
-3.7948899 7.6016598 196.325
-3.65609 7.59725 196.21201
-3.5176799 7.5933299 196.11
-3.3802199 7.5912099 196.056
-3.2428999 7.5892501 196.005
-3.1045499 7.58461 195.88499
-2.9671099 7.5818801 195.814
-2.8297701 7.5791302 195.743
-2.6917 7.57407 195.61301
-2.4179299 7.5696101 195.498
-2.28069 7.5658202 195.39999
-2.14377 7.5626798 195.319
-2.0072401 7.5605698 195.26401
-1.87079 7.5584698 195.21001
-1.73399 7.5545402 195.10899
-1.59779 7.5527701 195.063
-1.32578 7.5503802 195.00101
-1.18977 7.5487099 194.95799
-1.0536799 7.5460401 194.88901
-0.91770703 7.5435801 194.825
-0.64633101 7.5421801 194.789
-0.51066703 7.5412798 194.76601
-0.37492999 7.53825 194.688
-0.23937801 7.5376301 194.672
-0.103824 7.5352502 194.61
0.031653401 7.53514 194.60699
0.16706599 7.53229 194.534
0.302477 7.53194 194.52499
0.437837 7.53093 194.49899
0.57318598 7.5302501 194.481
0.70847398 7.5291901 194.45399
0.84400398 7.5306201 194.491
0.97934502 7.5302 194.48
1.11452 7.5287499 194.442
1.24973 7.5278301 194.41901
1.38519 7.52847 194.435
1.52022 7.5268798 194.394
1.65556 7.5269399 194.396
1.79144 7.5292401 194.455
1.92679 7.52918 194.453
2.06252 7.5304799 194.487
2.19785 7.5302801 194.48199
2.3333099 7.5304899 194.487
2.46925 7.5321698 194.53101
2.60531 7.5339999 194.578
2.7406499 7.5337 194.57001
2.8759899 7.53339 194.562
3.0111101 7.5325999 194.54201
3.14766 7.5352702 194.61099
3.2839799 7.5372 194.66
3.4193001 7.5367799 194.64999
3.5549901 7.5371599 194.659
3.69119 7.5385799 194.696
3.8264 7.53792 194.679
3.9627199 7.5394301 194.718
4.0991602 7.54106 194.75999
4.2351899 7.5418701 194.78101
4.3724899 7.5448098 194.85699
4.50951 7.5471001 194.916
4.64469 7.5462599 194.895
4.7814698 7.5479999 194.94
4.9172101 7.5480599 194.94099
5.05549 7.5518999 195.03999
5.1936598 7.5553799 195.13
5.3305802 7.55691 195.17
5.4664102 7.55685 195.168
5.6026001 7.5572901 195.17999
5.7397499 7.55897 195.22301
5.87713 7.5608702 195.272
6.01544 7.5638599 195.349
6.1511998 7.56357 195.342
6.2866502 7.5629201 195.325
6.4222999 7.5625401 195.315
6.5560002 7.5599298 195.24699
6.6933999 7.5616002 195.291
6.8320999 7.56464 195.369
6.9693298 7.5659599 195.403
7.10537 7.5659699 195.40401
7.2423601 7.5669799 195.42999
7.3779001 7.5664501 195.416
7.5144 7.5669098 195.42799
7.65165 7.56811 195.459
7.7880998 7.56847 195.468
7.92799 7.5721202 195.563
8.0641899 7.5721698 195.564
8.20189 7.5736098 195.601
8.3397799 7.57517 195.64101
8.47752 7.57656 195.677
8.6135101 7.5763502 195.672
8.7549801 7.5809002 195.789
8.8927097 7.5821199 195.821
9.0294304 7.5824499 195.82899
9.1669397 7.5834398 195.855
9.3042498 7.5842299 195.875
9.4451704 7.5878901 195.97
9.5822401 7.5883999 195.983
9.71945 7.5890002 195.998
9.8570299 7.58988 196.021
9.9936199 7.5899801 196.024
10.1335 7.5925598 196.09
10.2731 7.5948601 196.14999
10.4104 7.5953798 196.16299
10.5504 7.5978799 196.228
10.688 7.5985699 196.246
10.8265 7.5998998 196.28
10.9639 7.60039 196.293
11.1029 7.6020002 196.334
11.3874 7.6094499 196.52699
11.5297 7.6131001 196.621
11.6696 7.6150298 196.67101
11.8069 7.6152902 196.677
11.9541 7.62184 196.847
12.0983 7.6263599 196.963
12.2434 7.63134 197.092
12.3909 7.6376801 197.256
12.5384 7.64393 197.41701
12.6854 7.6496501 197.565
12.83 7.6538701 197.674
12.981 7.6617699 197.87801
13.1326 7.6698899 198.08701
13.2782 7.6743202 198.202
13.4211 7.6771302 198.274
13.5727 7.6848202 198.47301
13.7203 7.6901398 198.61
13.8771 7.7004299 198.87601
14.0425 7.7151999 199.258
14.2256 7.7393799 199.882
14.4087 7.7630501 200.494
14.5756 7.7776399 200.87
14.7442 7.79282 201.26199
14.9371 7.8204699 201.97701
15.1118 7.83813 202.433
15.2649 7.84443 202.595
15.4168 7.8499498 202.73801
-7.0163398 7.8253899 198.532
-6.87427 7.8210001 198.42101
-6.7319999 7.8161998 198.299
-6.5893698 7.81076 198.161
-6.4472299 7.8056898 198.032
-6.3055902 7.8010001 197.91299
-6.16469 7.79706 197.814
-6.02456 7.7939301 197.73399
