ply
format ascii 1.0
comment PCL generated
element vertex 1811
property float x
property float y
property float z
element camera 0
property float view_px
property float view_py
property float view_pz
property float x_axisx
property float x_axisy
property float x_axisz
property float y_axisx
property float y_axisy
property float y_axisz
property float z_axisx
property float z_axisy
property float z_axisz
property float focal
property float scalex
property float scaley
property float centerx
property float centery
property int viewportx
property int viewporty
property float k1
property float k2
end_header
12.7206 15.3698 195.989
12.8738 15.3898 196.244
13.0311 15.4143 196.556
13.1882 15.438 196.85899
13.3447 15.4606 197.147
13.495 15.4755 197.33701
13.6476 15.4928 197.55701
13.7996 15.509 197.765
13.9522 15.5257 197.97701
14.1029 15.5398 198.157
14.2573 15.5578 198.386
14.4144 15.5784 198.64799
14.5713 15.5983 198.90199
14.7265 15.616 199.129
14.8834 15.6352 199.37399
15.0522 15.6664 199.771
15.2325 15.7089 200.314
15.4098 15.7477 200.80701
15.5796 15.7781 201.19501
15.742 15.8005 201.481
15.9075 15.8256 201.80099
16.068399 15.8457 202.05701
16.230499 15.8666 202.325
16.391199 15.8859 202.57001
16.5497 15.9027 202.784
16.7117 15.9226 203.03799
16.875099 15.9434 203.30299
17.044201 15.9692 203.633
0.58166599 15.6146 197.358
0.71859902 15.6047 197.233
0.85531199 15.5939 197.09599
0.99187499 15.5838 196.968
1.12828 15.574 196.84399
1.2644 15.5627 196.702
1.53719 15.5517 196.563
1.6730601 15.5427 196.45
1.80893 15.5352 196.354
1.94444 15.5257 196.23399
2.08021 15.5195 196.155
2.2160101 15.5142 196.088
2.3517301 15.509 196.02299
2.4874499 15.5043 195.964
2.62289 15.4985 195.89101
2.75844 15.4939 195.83299
2.8936801 15.4881 195.759
3.0297101 15.4868 195.743
3.1652901 15.4835 195.701
3.3007901 15.48 195.657
3.4358001 15.4746 195.589
3.57072 15.4693 195.521
3.7060599 15.4661 195.48
3.8415999 15.4639 195.452
3.97644 15.4591 195.39301
4.1118498 15.4568 195.36301
4.2473898 15.4551 195.342
4.5172601 15.4479 195.25101
4.6525002 15.4457 195.222
4.7877598 15.4436 195.196
4.9217701 15.4377 195.12199
5.0568399 15.4354 195.092
5.19313 15.4368 195.11
5.3275299 15.4326 195.058
5.4618402 15.4284 195.005
5.5967798 15.4262 194.97701
5.73107 15.4223 194.92799
5.8660002 15.4203 194.90199
5.9999299 15.4158 194.845
6.1349001 15.4141 194.82401
6.2701802 15.4133 194.813
6.4052801 15.412 194.797
6.5389299 15.4074 194.739
6.6735702 15.4053 194.71201
6.8070698 15.4006 194.653
6.9409199 15.3969 194.60699
7.0751901 15.3943 194.57401
7.2108898 15.3949 194.58
7.34412 15.3902 194.521
7.4780598 15.3872 194.483
7.61343 15.3871 194.48199
7.74751 15.3845 194.45
7.8804598 15.3798 194.39
8.0155201 15.3793 194.384
8.1491003 15.376 194.342
8.2832603 15.3739 194.31599
8.41887 15.3745 194.323
8.55373 15.3738 194.314
8.6867199 15.3697 194.263
8.8211603 15.3683 194.245
8.9551401 15.3662 194.218
9.0899897 15.3656 194.211
9.2230797 15.3621 194.166
9.4911699 15.3584 194.12
9.6264601 15.3587 194.123
9.76194 15.3592 194.13
9.8972597 15.3595 194.133
10.0323 15.3593 194.132
10.1666 15.3581 194.116
10.2995 15.3548 194.07401
10.4344 15.3545 194.07001
10.5702 15.3555 194.08299
10.7057 15.356 194.089
10.8412 15.3566 194.09599
10.9767 15.357 194.10201
11.1118 15.357 194.10201
11.2462 15.3561 194.09
11.3806 15.3551 194.078
11.5169 15.3566 194.097
11.6535 15.3586 194.12199
11.7961 15.3683 194.245
12.0893 15.3973 194.612
12.2396 15.4159 194.847
12.3958 15.4416 195.17101
12.554 15.4691 195.519
12.7141 15.4984 195.88901
12.8682 15.5198 196.159
13.0255 15.5444 196.47099
13.183 15.569 196.78101
13.3397 15.592 197.07201
13.4921 15.6096 197.295
13.6441 15.6264 197.507
13.7969 15.6437 197.726
13.9485 15.6594 197.925
14.1004 15.6751 198.12199
14.2538 15.6921 198.33701
14.4085 15.7103 198.567
14.565 15.73 198.81599
14.7212 15.749 199.05701
14.8754 15.7656 199.267
15.041 15.7938 199.623
15.2153 15.8306 200.088
15.3937 15.8709 200.59801
15.5645 15.9027 200.99899
15.7311 15.9297 201.341
15.8967 15.9553 201.66299
16.0578 15.9759 201.925
16.379999 16.016001 202.431
16.5394 16.033899 202.658
16.702101 16.054701 202.92
16.864901 16.0753 203.17999
17.0312 16.098801 203.47701
17.202999 16.127001 203.834
0.30729601 15.7733 197.62399
0.444469 15.759 197.44501
0.58169103 15.7528 197.367
0.71864098 15.743 197.244
0.85529602 15.7309 197.093
0.99187899 15.721 196.96899
1.12828 15.711 196.84399
1.26448 15.7006 196.713
1.4011101 15.6972 196.67
1.53739 15.6907 196.589
1.6732399 15.6813 196.47099
1.80913 15.6736 196.375
1.94461 15.6637 196.25101
2.0803499 15.6572 196.16901
2.2160299 15.6509 196.09
2.35179 15.6459 196.028
2.4875 15.6412 195.96899
2.6229601 15.6354 195.896
2.7584 15.6301 195.83
2.8938799 15.6255 195.77299
3.0297999 15.6236 195.74899
3.1654 15.6204 195.70799
3.3009801 15.6172 195.668
3.4355299 15.6097 195.57401
3.5705299 15.6046 195.511
3.70574 15.6009 195.463
3.8412001 15.5984 195.43201
3.9761801 15.5942 195.38
4.1118302 15.5928 195.362
4.2476001 15.592 195.35201
4.38306 15.59 195.328
4.5173202 15.5841 195.254
4.65241 15.5813 195.218
4.7877898 15.5796 195.19701
4.9221401 15.5748 195.136
5.05755 15.5734 195.12
5.1932101 15.5729 195.11301
5.3270798 15.5672 195.041
5.4607201 15.5611 194.965
5.5956602 15.5589 194.938
5.7299399 15.555 194.88901
5.8649402 15.5532 194.867
5.99861 15.5481 194.802
6.1326098 15.544 194.75101
6.2674298 15.5421 194.728
6.4026699 15.5414 194.718
6.5365 15.5373 194.66701
6.6706901 15.5342 194.62801
6.8045101 15.5304 194.58
6.9380298 15.526 194.526
7.0721002 15.5231 194.489
7.20713 15.5223 194.479
7.34095 15.519 194.437
7.4748902 15.516 194.401
7.60992 15.5154 194.39301
7.7441702 15.5133 194.366
7.8770399 15.5085 194.306
8.0113802 15.5067 194.283
8.1451702 15.5039 194.248
8.2790003 15.5013 194.216
8.4136896 15.5003 194.20399
8.5493002 15.5011 194.213
8.6817598 15.4962 194.15199
8.8163099 15.4951 194.138
9.0838499 15.4904 194.07899
9.2172499 15.4875 194.04401
9.3512497 15.4857 194.021
9.4855003 15.4844 194.004
9.6200895 15.4836 193.995
9.7560902 15.4852 194.01401
9.8915796 15.4858 194.022
10.0256 15.4843 194.002
10.1602 15.4835 193.992
10.2923 15.4791 193.937
10.4269 15.4784 193.929
10.5627 15.4796 193.94501
10.834 15.4814 193.967
10.9695 15.4821 193.97501
11.3724 15.4791 193.937
11.5081 15.4801 193.95
11.6457 15.4835 193.993
11.7905 15.4963 194.153
11.935 15.5084 194.30499
12.0824 15.524 194.50101
12.232 15.542 194.726
12.3877 15.5674 195.04401
12.5469 15.5965 195.408
12.7061 15.625 195.765
12.8623 15.6492 196.069
13.0195 15.6741 196.381
13.1763 15.6981 196.681
13.3323 15.7206 196.964
13.4863 15.7403 197.21001
13.6393 15.7584 197.437
13.7934 15.7774 197.67599
13.9451 15.7935 197.87601
14.0963 15.8085 198.065
14.2498 15.8259 198.282
14.404 15.8436 198.505
14.5588 15.8617 198.73199
14.7156 15.8816 198.981
14.8699 15.8985 199.19299
15.0325 15.9239 199.50999
15.2 15.9539 199.88699
15.3785 15.9948 200.399
15.5493 16.0271 200.804
15.7196 16.0583 201.194
15.8856 16.084499 201.52299
16.048 16.106701 201.80099
16.2108 16.128901 202.07899
16.369801 16.146999 202.306
16.5289 16.164801 202.52901
16.6919 16.186199 202.797
16.856501 16.2087 203.07899
17.0203 16.23 203.34599
17.191099 16.2577 203.69299
17.3571 16.280399 203.97701
0.30725601 15.9089 197.59801
0.444471 15.8966 197.446
0.58171201 15.8908 197.37399
0.71863002 15.8801 197.241
0.85529703 15.8682 197.093
0.99193603 15.8591 196.98
1.12826 15.8478 196.84
1.2646 15.8392 196.733
1.40114 15.8345 196.675
1.53749 15.8287 196.603
1.67344 15.8201 196.495
1.80932 15.8121 196.396
1.94476 15.8017 196.267
2.0804501 15.7945 196.17799
2.21631 15.7895 196.11501
2.3520899 15.7844 196.052
2.4876599 15.7787 195.981
2.6231201 15.7729 195.909
2.7585299 15.7673 195.84
2.89413 15.7633 195.78999
3.0297301 15.7596 195.745
3.1652601 15.756 195.69901
3.3007801 15.7525 195.65601
3.4352701 15.7447 195.55901
3.5702801 15.7397 195.49699
3.7055199 15.7361 195.452
3.84112 15.7342 195.42799
3.97615 15.7301 195.37801
4.11163 15.7281 195.353
4.24754 15.7278 195.349
4.38271 15.7248 195.312
4.5171199 15.7194 195.245
4.6523299 15.717 195.215
4.7874298 15.7144 195.183
4.92208 15.7105 195.134
5.0576701 15.7097 195.12399
5.1928301 15.7077 195.099
5.3262901 15.7007 195.01199
5.4597502 15.6941 194.92999
5.5947599 15.6922 194.90601
5.7288299 15.6877 194.85201
5.8635702 15.6853 194.821
5.9971499 15.68 194.755
6.1308799 15.6753 194.696
6.26508 15.6719 194.655
6.3998699 15.6701 194.633
6.5342202 15.6674 194.599
6.8013401 15.6586 194.489
6.9347601 15.6541 194.43401
7.0686002 15.6508 194.392
7.2031002 15.649 194.37
7.3372898 15.6466 194.34
7.6050801 15.6409 194.269
7.7396002 15.6394 194.25101
7.8724699 15.6347 194.19299
8.0063105 15.6321 194.16
8.14048 15.6302 194.13699
8.2745504 15.6281 194.11099
8.4082603 15.6255 194.078
8.5439301 15.6265 194.091
8.8109598 15.6209 194.021
8.9440899 15.6175 193.979
9.0775003 15.6147 193.944
9.2114296 15.6128 193.92101
9.3446999 15.6099 193.88499
9.4784298 15.6079 193.86
9.6135101 15.6081 193.862
9.7487297 15.6085 193.867
9.88381 15.6087 193.87
10.2848 15.6027 193.79601
10.4197 15.6028 193.797
10.5547 15.6029 193.797
10.6901 15.6036 193.806
10.8262 15.6053 193.828
10.9614 15.6057 193.832
11.0963 15.6057 193.832
11.2323 15.6071 193.85001
11.3662 15.6057 193.832
11.5016 15.6063 193.84
11.6391 15.6097 193.882
11.7845 15.6235 194.054
11.9303 15.6376 194.229
12.2263 15.6704 194.636
12.3806 15.6943 194.93201
12.5415 15.7258 195.32401
12.6984 15.7518 195.647
12.8563 15.7784 195.978
13.013 15.803 196.283
13.3239 15.8478 196.84
13.4786 15.8686 197.097
13.6328 15.8883 197.343
13.7875 15.9084 197.592
13.9406 15.9261 197.813
14.0908 15.9403 197.98801
14.2449 15.9585 198.214
14.4003 15.9778 198.45399
14.5539 15.9947 198.664
14.7087 16.012699 198.888
14.8635 16.0303 199.106
15.0236 16.053301 199.392
15.1905 16.083099 199.76199
15.3628 16.117901 200.194
15.5355 16.152599 200.625
15.7059 16.1842 201.01801
15.8742 16.2132 201.37801
16.037701 16.236799 201.67101
16.200001 16.258801 201.94501
16.3591 16.277201 202.174
16.52 16.2971 202.42101
16.6805 16.316299 202.658
17.009199 16.361099 203.215
17.177 16.3862 203.52699
17.343201 16.4093 203.814
0.30722901 16.045099 197.58099
0.44448099 16.0345 197.45
0.58173698 16.028999 197.383
0.71868801 16.018801 197.257
0.85538697 16.0072 197.114
0.99203098 15.9979 196.99899
1.1283 15.9856 196.84801
1.26481 15.9789 196.765
1.40127 15.973 196.69299
1.5376101 15.9668 196.617
1.67365 15.9589 196.519
1.8094701 15.9502 196.412
1.94491 15.9396 196.28101
2.0806701 15.9328 196.198
2.2165201 15.9276 196.133
2.48787 15.9165 195.998
2.6233499 15.9107 195.925
2.7588301 15.9054 195.86099
2.8942499 15.9003 195.798
3.02966 15.8956 195.74001
3.16503 15.8911 195.685
3.3004701 15.8874 195.638
3.4351001 15.8801 195.549
3.57023 15.8757 195.494
3.7053101 15.8713 195.44099
3.84115 15.8704 195.42999
3.97613 15.8662 195.377
4.1114802 15.8636 195.34599
4.24722 15.8627 195.334
4.3821301 15.8588 195.286
4.51682 15.8544 195.23199
4.65204 15.852 195.203
4.7870102 15.849 195.166
4.9218202 15.8456 195.12399
5.0570998 15.8438 195.10201
5.1916699 15.84 195.05499
5.3251901 15.8333 194.972
5.4586401 15.8267 194.89101
5.5934701 15.8243 194.862
5.7270198 15.8185 194.78999
5.8617501 15.8161 194.761
5.9955502 15.8114 194.703
6.1289902 15.806 194.636
6.26263 15.8013 194.57899
6.39714 15.799 194.55
6.6651301 15.7921 194.466
6.7976599 15.7855 194.384
6.9311399 15.7813 194.33299
7.0640101 15.7759 194.26601
7.3329201 15.7726 194.22501
7.46733 15.7709 194.20399
7.6013098 15.7683 194.173
7.7340999 15.7635 194.11301
7.8673801 15.7598 194.067
8.0008898 15.7567 194.02901
8.1354799 15.7557 194.017
8.26931 15.7534 193.98801
8.4031601 15.7511 193.961
8.5384398 15.7516 193.966
8.6723204 15.7495 193.94099
8.8044596 15.7444 193.87801
8.9377804 15.7415 193.842
9.0715199 15.7394 193.81599
9.2057695 15.7382 193.802
9.4731598 15.7342 193.752
9.6080799 15.7342 193.75301
9.7407398 15.7306 193.709
9.8759403 15.7312 193.715
10.0107 15.7311 193.714
10.1449 15.73 193.701
10.2782 15.7276 193.672
10.4113 15.725 193.64
10.5459 15.7247 193.636
10.6817 15.7262 193.653
10.8172 15.7272 193.666
10.9526 15.728 193.67599
11.0887 15.7298 193.698
11.2239 15.7303 193.705
11.3582 15.7297 193.69701
11.4949 15.7322 193.728
11.6318 15.735 193.76199
11.7749 15.7459 193.896
11.9219 15.7618 194.093
12.0697 15.7784 194.29601
12.2193 15.7969 194.524
12.3746 15.8223 194.83701
12.5309 15.8485 195.16
12.6893 15.8767 195.507
12.8489 15.9058 195.86501
13.006 15.9311 196.177
13.1618 15.9544 196.464
13.319 15.979 196.767
13.4726 15.9988 197.00999
13.6264 16.018299 197.25101
13.7814 16.0389 197.504
13.9359 16.058399 197.745
14.0864 16.073099 197.92599
14.2396 16.0905 198.14
14.3951 16.110201 198.382
14.5495 16.1283 198.605
14.8584 16.1635 199.039
15.0174 16.185499 199.31
15.182 16.2131 199.64999
15.3474 16.2411 199.994
15.5217 16.2778 200.44701
15.6907 16.3085 200.82401
15.8593 16.3382 201.19
16.0254 16.364799 201.517
16.186501 16.385799 201.776
16.348801 16.4077 202.04601
16.509399 16.427601 202.291
16.669201 16.446301 202.521
16.8328 16.468399 202.793
16.997101 16.4909 203.07001
17.162001 16.5135 203.34801
17.3281 16.5369 203.63699
0.30719301 16.180799 197.55701
0.444435 16.1703 197.429
0.58170801 16.165701 197.37199
0.71868199 16.156099 197.255
0.855407 16.1448 197.118
0.99206901 16.1357 197.007
1.12846 16.124901 196.875
1.26501 16.1185 196.797
1.4014601 16.112101 196.71899
1.5377001 16.1047 196.62801
1.67383 16.0975 196.541
1.80966 16.088699 196.433
1.94498 16.0769 196.289
2.08093 16.071501 196.22301
2.2166901 16.065399 196.149
2.35251 16.060499 196.088
2.4880099 16.0539 196.008
2.62357 16.0485 195.942
2.75896 16.042601 195.87
2.8942101 16.036501 195.795
3.0297101 16.0322 195.743
3.1651101 16.0278 195.69
3.30057 16.024099 195.644
3.4354401 16.0179 195.56799
3.5704 16.0126 195.50301
3.7053001 16.007401 195.44
3.8412299 16.006901 195.43401
3.9762101 16.0026 195.381
4.1114001 15.9993 195.342
4.2467299 15.9969 195.312
4.3815799 15.9928 195.26199
4.5160799 15.9877 195.2
4.6512899 15.9854 195.172
4.7864199 15.9829 195.14101
4.9209499 15.9786 195.089
5.0563002 15.9772 195.071
5.1905198 15.9723 195.01199
5.3238502 15.9651 194.923
5.4569402 15.9574 194.83
5.59163 15.9547 194.797
5.7253199 15.9494 194.73199
5.8598599 15.9466 194.698
5.9932799 15.941 194.629
6.1266699 15.9355 194.562
6.26016 15.9305 194.502
6.39361 15.9257 194.442
6.5279498 15.9232 194.412
6.6620898 15.9203 194.377
6.7943802 15.9132 194.291
7.0595698 15.9012 194.144
7.19208 15.8954 194.073
7.3271399 15.8953 194.071
7.4630399 15.897 194.092
7.5964198 15.8934 194.048
7.72893 15.8881 193.983
7.8612599 15.8826 193.916
7.9950399 15.8802 193.88699
8.1286802 15.8776 193.855
8.2637796 15.8779 193.85899
8.3974304 15.8754 193.828
8.5324001 15.8754 193.82899
8.6661701 15.8733 193.80299
8.7983198 15.8683 193.742
8.9311399 15.8647 193.698
9.0647898 15.8626 193.672
9.19946 15.8623 193.66901
9.3334303 15.8609 193.651
9.4677496 15.8601 193.64101
9.6016703 15.8586 193.623
9.73388 15.8544 193.57201
9.8682203 15.8537 193.564
10.0035 15.8545 193.573
10.1372 15.8529 193.554
10.4037 15.8484 193.49899
10.5375 15.8469 193.481
10.6733 15.8486 193.50101
10.809 15.8501 193.519
10.9429 15.849 193.506
11.0785 15.8502 193.52
11.2143 15.8517 193.539
11.3496 15.8525 193.549
11.4872 15.8565 193.59801
11.7692 15.8732 193.802
11.9135 15.8857 193.955
12.0641 15.9062 194.205
12.369 15.9508 194.74899
12.5209 15.9716 195.00301
12.6817 16.003201 195.38901
12.8397 16.030701 195.72501
12.9948 16.0539 196.008
13.1532 16.080799 196.336
13.3116 16.1071 196.658
13.4677 16.129999 196.938
13.6196 16.1476 197.15199
13.7753 16.1693 197.41701
13.9307 16.190201 197.672
14.0811 16.204901 197.851
14.3888 16.241301 198.295
14.5437 16.260099 198.526
14.6976 16.2775 198.737
14.8546 16.298 198.98801
15.0136 16.3202 199.25999
15.1726 16.3421 199.526
15.3355 16.367599 199.838
15.5066 16.401501 200.252
15.6766 16.433599 200.64301
15.8459 16.464399 201.02
16.0135 16.4928 201.367
16.174999 16.514601 201.633
16.339001 16.5385 201.924
16.4988 16.5578 202.161
16.658899 16.577101 202.396
16.821301 16.5984 202.655
17.148701 16.6422 203.19099
17.313999 16.665199 203.472
17.488001 16.6961 203.84801
0.30721301 16.3195 197.57001
0.44446999 16.309099 197.44501
0.58168298 16.3025 197.364
0.71864301 16.292601 197.245
0.85541302 16.282301 197.12
0.99204302 16.272499 197.00101
1.12841 16.2614 196.867
1.26498 16.2551 196.791
1.40148 16.249399 196.722
1.53775 16.2423 196.636
1.6738501 16.2346 196.543
1.80972 16.226101 196.439
1.94508 16.214399 196.299
2.08109 16.209499 196.23801
2.2169399 16.2038 196.17
2.35268 16.1982 196.10201
2.4883499 16.192699 196.035
2.6238 16.186399 195.959
2.7590101 16.1793 195.873
2.8942001 16.1728 195.79401
3.0297101 16.1686 195.743
3.16523 16.1647 195.69701
3.30054 16.1602 195.642
3.4356201 16.155001 195.57899
3.5704501 16.149 195.506
3.7053001 16.143499 195.44
3.84131 16.143299 195.438
3.9762299 16.1387 195.382
4.1112599 16.134899 195.33501
4.24614 16.130699 195.285
4.38129 16.127701 195.24899
4.5154901 16.121599 195.174
4.65025 16.117701 195.12801
4.7853599 16.115299 195.09801
4.9194002 16.109501 195.028
5.0547199 16.108 195.00999
5.1884899 16.1019 194.936
5.32199 16.0952 194.855
5.4548998 16.087099 194.757
5.5892901 16.0837 194.716
5.7235999 16.0802 194.674
5.8576298 16.076099 194.62399
5.9906101 16.069401 194.543
6.1237898 16.063499 194.47099
6.2567601 16.057301 194.396
6.38978 16.0515 194.326
6.5241699 16.049299 194.299
6.65835 16.0467 194.26801
6.9225998 16.032301 194.093
7.0553999 16.027 194.03
7.1876702 16.0208 193.95399
7.3215499 16.0182 193.923
7.4572601 16.0198 193.942
7.59056 16.016199 193.89799
7.7235999 16.0121 193.85001
7.85602 16.007 193.787
7.9891 16.0033 193.743
8.1217899 15.999 193.69099
8.2569399 15.9996 193.698
8.6598701 15.9967 193.662
8.7920198 15.9918 193.604
8.92451 15.9877 193.554
9.0584497 15.9863 193.537
9.1920099 15.9843 193.51199
9.3266401 15.9841 193.511
9.4607096 15.983 193.49699
9.5942202 15.981 193.47301
9.72686 15.9777 193.433
9.8599501 15.9751 193.40199
9.9950104 15.9758 193.41
10.1292 15.9751 193.40199
10.263 15.9739 193.386
10.3979 15.9742 193.39
10.5303 15.9708 193.35001
10.6649 15.9709 193.35001
10.8013 15.9734 193.381
10.9352 15.9725 193.37
11.069 15.9713 193.356
11.2051 15.9734 193.381
11.3417 15.9762 193.41499
11.4802 15.9815 193.479
11.6198 15.9883 193.561
11.9072 16.0124 193.853
12.0556 16.030199 194.069
12.2047 16.0487 194.29201
12.3581 16.0723 194.578
12.5124 16.0965 194.871
12.6737 16.129101 195.26601
12.83 16.1548 195.576
12.986 16.179501 195.875
13.1464 16.2092 196.23599
13.3043 16.235201 196.549
13.4608 16.259001 196.838
13.6127 16.276699 197.05299
13.768 16.298201 197.313
13.9255 16.321699 197.597
14.0762 16.337 197.782
14.2295 16.355 198
14.3823 16.372 198.20599
14.5385 16.3925 198.455
14.6921 16.4097 198.66299
14.8491 16.4305 198.914
15.165 16.4727 199.42599
15.3266 16.497299 199.724
15.4947 16.528299 200.09801
15.6656 16.561701 200.50301
15.8347 16.5926 200.877
16.0021 16.621201 201.224
16.164801 16.6446 201.506
16.3276 16.667601 201.785
16.4877 16.687401 202.024
16.6472 16.7064 202.254
16.8095 16.727699 202.513
16.974199 16.751101 202.79601
17.1367 16.771999 203.048
17.472601 16.8232 203.66901
17.644699 16.8522 204.02
0.30716801 16.4547 197.54201
0.444464 16.4464 197.442
0.58168799 16.4401 197.366
0.71858299 16.4286 197.228
0.85536498 16.4186 197.10899
0.99201399 16.409201 196.996
1.12837 16.3979 196.85899
1.26498 16.3923 196.79201
1.4015 16.3867 196.72501
1.53775 16.3792 196.63499
1.67382 16.371201 196.539
1.8098 16.3636 196.448
1.94516 16.351801 196.30701
2.0811901 16.346901 196.24699
2.21715 16.3421 196.19
2.3529899 16.337 196.12801
2.4886999 16.331499 196.063
2.6240699 16.324499 195.979
2.7592001 16.3169 195.88699
2.8943501 16.309999 195.80499
3.02985 16.3057 195.752
3.1652999 16.301399 195.701
3.30058 16.2967 195.644
3.43543 16.2903 195.56799
3.5704 16.284901 195.50301
3.70539 16.2801 195.44501
3.8411 16.278601 195.427
3.9760699 16.2742 195.37399
4.1108699 16.2694 195.317
4.24542 16.263901 195.25101
4.3804898 16.260799 195.214
4.51475 16.2549 195.14301
4.6491399 16.2498 195.082
4.7841001 16.246901 195.047
4.9179401 16.240499 194.97
5.0528698 16.2379 194.939
5.18608 16.230101 194.845
5.3197198 16.224001 194.772
5.4529099 16.2169 194.686
5.5870299 16.212799 194.63699
5.7210798 16.2087 194.588
5.85466 16.2034 194.52499
5.9875798 16.196699 194.444
6.1203098 16.189699 194.36099
6.2530198 16.183001 194.28
6.3853502 16.1756 194.19099
6.5193801 16.1728 194.157
6.78619 16.1644 194.056
6.9181299 16.157 193.968
7.0506601 16.1513 193.899
7.1831002 16.145599 193.83099
7.31567 16.1404 193.76801
7.4507298 16.140699 193.772
7.5846801 16.1387 193.748
7.71697 16.133301 193.683
7.8498001 16.1292 193.634
8.1154003 16.121201 193.53799
8.2494497 16.1199 193.522
8.3842096 16.120001 193.52299
8.5183296 16.118799 193.50999
8.6523705 16.117599 193.495
8.7855196 16.114799 193.461
8.9174099 16.109699 193.39999
9.1849203 16.1066 193.36301
9.3203001 16.107901 193.379
9.4538097 16.1061 193.356
9.5869102 16.1035 193.326
9.7187004 16.0989 193.27
9.8526096 16.0979 193.258
9.98734 16.0982 193.261
10.1218 16.098 193.259
10.2545 16.0952 193.22501
10.3906 16.097601 193.255
10.5239 16.095699 193.23199
11.4743 16.108 193.379
11.6141 16.1152 193.466
11.7553 16.124201 193.57401
11.9003 16.138 193.74001
12.0464 16.153099 193.92101
12.1973 16.174101 194.173
12.3505 16.1978 194.457
12.5035 16.220699 194.73199
12.8207 16.2792 195.435
12.9797 16.3081 195.78101
13.1409 16.339001 196.153
13.2969 16.363001 196.44
13.4528 16.386299 196.72
13.6056 16.405399 196.95
13.7604 16.4265 197.203
13.9178 16.4503 197.489
14.2236 16.486 197.91701
14.3762 16.503 198.121
14.5314 16.522699 198.358
14.6873 16.5427 198.59801
14.8434 16.562599 198.83701
15.0015 16.5844 199.09801
15.1574 16.603399 199.327
15.3182 16.627199 199.61301
15.486 16.6583 199.98599
15.655 16.6901 200.367
15.8233 16.7204 200.73199
15.9903 16.7491 201.075
16.152901 16.7726 201.358
16.314301 16.794399 201.62
16.4736 16.8137 201.85201
16.633801 16.8337 202.091
16.7969 16.8561 202.36099
16.9618 16.8801 202.64799
17.123301 16.9002 202.89
17.287001 16.922199 203.15401
17.4559 16.948799 203.474
17.628599 16.9788 203.83299
0.30720299 16.5942 197.564
0.444516 16.585899 197.466
0.58170497 16.577999 197.37199
0.718624 16.5669 197.239
0.85540199 16.556601 197.117
0.99208099 16.5476 197.009
1.1285 16.5368 196.881
1.26508 16.5306 196.80701
1.40154 16.524099 196.73
1.53789 16.517599 196.653
1.6739 16.5089 196.549
1.80984 16.500799 196.452
1.94532 16.489901 196.323
2.0812199 16.483801 196.25
2.2172401 16.479401 196.19701
2.35308 16.474199 196.136
2.4888201 16.468901 196.07201
2.6243701 16.4629 196.00101
2.75951 16.455099 195.909
2.89463 16.448 195.82401
3.03004 16.443001 195.76401
3.1654601 16.438499 195.711
3.3008399 16.4342 195.66
3.4354801 16.426701 195.571
3.57056 16.4219 195.513
3.7053001 16.4158 195.44
3.8408101 16.4135 195.412
3.9758 16.4091 195.36099
4.1102099 16.4028 195.285
4.2446198 16.396799 195.215
4.37956 16.3932 195.172
4.5138698 16.3876 195.105
4.64784 16.3811 195.02699
4.7825899 16.3776 194.985
4.9166899 16.372101 194.92
5.0516801 16.369801 194.89301
5.1838298 16.3587 194.761
5.31707 16.3515 194.675
5.4507098 16.3459 194.608
5.5841298 16.3398 194.536
5.71841 16.336599 194.49699
5.8515501 16.330299 194.422
5.9841299 16.322701 194.332
6.1167598 16.315599 194.248
6.2487702 16.307199 194.14799
6.3805699 16.2987 194.04601
6.5144501 16.2957 194.00999
6.6483498 16.292801 193.976
6.7811699 16.2875 193.91299
7.0457201 16.2749 193.763
7.1785002 16.270201 193.70599
7.3091302 16.260799 193.595
7.4448199 16.2628 193.619
7.5794201 16.2624 193.614
7.84445 16.253 193.502
7.9774098 16.249399 193.459
8.1097803 16.244801 193.40401
8.2434502 16.242901 193.382
8.3785105 16.2437 193.392
8.7773104 16.234301 193.28
8.9095802 16.2302 193.23
9.0431995 16.2285 193.211
9.177 16.227301 193.196
9.3121099 16.228399 193.209
9.4468699 16.2288 193.214
9.5801096 16.2267 193.189
9.8442001 16.218599 193.093
10.1146 16.2211 193.12199
10.2476 16.2188 193.095
10.3824 16.2195 193.103
10.5157 16.2176 193.08099
10.6483 16.214899 193.048
10.7838 16.2166 193.069
10.9188 16.217501 193.07899
11.0519 16.215599 193.056
11.1877 16.2176 193.08099
11.326 16.2232 193.147
11.6074 16.2407 193.355
11.7492 16.2505 193.47301
11.8933 16.263399 193.62601
12.0393 16.2785 193.806
12.1896 16.299101 194.05099
12.3409 16.320499 194.306
12.4949 16.3451 194.59801
12.6541 16.375799 194.964
12.8122 16.404499 195.306
12.969 16.430799 195.619
13.1313 16.463499 196.009
13.29 16.491301 196.339
13.4476 16.5168 196.64301
13.5992 16.5348 196.85699
13.7524 16.554199 197.088
13.9089 16.577299 197.36301
14.064 16.5982 197.612
14.2158 16.614799 197.81
14.3686 16.632299 198.017
14.523 16.651199 198.243
14.6802 16.673 198.50301
14.8361 16.693001 198.74001
14.9941 16.7148 199
15.1505 16.734501 199.235
15.3114 16.7589 199.52499
15.4769 16.787701 199.868
15.6432 16.8169 200.216
15.8128 16.849199 200.60001
15.9778 16.8759 200.918
16.1406 16.8999 201.20399
16.3013 16.9214 201.459
16.4615 16.9419 201.70399
16.622801 16.9631 201.957
16.7838 16.983801 202.203
16.9484 17.007799 202.48801
17.109501 17.0278 202.726
17.275 17.051901 203.013
17.6127 17.105301 203.649
0.30722901 16.7332 197.58099
0.44459999 16.726601 197.50301
0.58172202 16.716 197.37801
0.71871501 16.7064 197.26401
0.85550201 16.6959 197.14
0.99210697 16.6852 197.01401
1.12857 16.6751 196.895
1.2652 16.669201 196.826
1.4015501 16.6612 196.731
1.53771 16.6527 196.63
1.67386 16.645399 196.54401
1.80976 16.6369 196.44299
1.94517 16.625401 196.308
2.08147 16.622499 196.274
2.21717 16.615499 196.19099
2.35306 16.610701 196.134
2.48877 16.605101 196.069
2.6246099 16.601 196.02
2.75945 16.591299 195.905
2.8949001 16.585899 195.842
3.03003 16.5793 195.76401
3.16538 16.5744 195.70599
3.3011701 16.572201 195.67999
3.4358001 16.564501 195.589
3.5708599 16.559401 195.52901
3.7053499 16.552099 195.44299
3.8410001 16.5504 195.422
3.97557 16.5443 195.35001
4.1096802 16.536699 195.25999
4.2440701 16.530701 195.189
4.3782802 16.524401 195.11501
4.51301 16.520399 195.06799
4.6466799 16.5128 194.978
4.7809401 16.5077 194.918
4.9144301 16.500299 194.83099
5.0489302 16.496599 194.787
5.1805601 16.483999 194.638
5.3138399 16.4771 194.55701
5.4472799 16.471001 194.485
5.58042 16.464399 194.407
5.7139602 16.4592 194.34599
5.8476501 16.4547 194.29201
5.9797101 16.4459 194.189
6.1124401 16.439301 194.11099
6.2443199 16.430799 194.00999
6.3764501 16.423201 193.92
6.5089998 16.417 193.84801
6.6433702 16.4156 193.83099
6.7760601 16.4102 193.76601
6.9089098 16.4053 193.709
7.0411501 16.3992 193.63699
7.17377 16.3943 193.57899
7.3048801 16.386101 193.48199
7.4383502 16.3834 193.45
7.57376 16.385 193.46899
7.70612 16.379999 193.411
7.8379598 16.374201 193.342
7.9709601 16.370899 193.30299
8.23629 16.3633 193.214
8.3703203 16.3624 193.203
8.5041704 16.3612 193.188
8.6366196 16.3573 193.142
8.7694702 16.3543 193.10699
8.9024 16.351601 193.07401
9.0358801 16.349899 193.05499
9.3034496 16.3477 193.02901
9.4373598 16.346901 193.02
9.5723305 16.3479 193.032
9.7044201 16.344101 192.98599
9.8367701 16.340799 192.94701
9.9710903 16.340799 192.94701
10.1056 16.341 192.95
10.2402 16.3416 192.957
10.3746 16.3416 192.957
10.5075 16.339399 192.92999
10.6398 16.3363 192.895
10.7751 16.337799 192.912
10.9093 16.337799 192.911
11.0442 16.3386 192.92101
11.179 16.339399 192.92999
11.3169 16.344601 192.992
11.46 16.357 193.13901
11.6008 16.365999 193.245
11.7416 16.374701 193.34801
11.8847 16.3864 193.48599
12.18 16.4214 193.899
12.3316 16.443501 194.16
12.4867 16.4699 194.47099
12.6433 16.497499 194.798
12.8025 16.528 195.157
12.9617 16.557699 195.509
13.1202 16.5861 195.84399
13.4405 16.6451 196.53999
13.5909 16.6618 196.737
13.7431 16.680201 196.955
13.901 16.7052 197.25
14.0556 16.7257 197.492
14.2067 16.7418 197.68201
14.3598 16.759899 197.896
14.516 16.7812 198.147
14.6738 16.8039 198.416
14.8295 16.823799 198.651
14.9864 16.844801 198.89799
15.1422 16.864 199.12601
15.3027 16.888201 199.411
15.4654 16.9144 199.72
15.6336 16.945999 200.093
15.803 16.9783 200.47501
15.9672 17.004499 200.784
16.1294 17.028299 201.065
16.2896 17.0494 201.315
16.450701 17.071199 201.57201
16.6145 17.095301 201.85699
16.7724 17.113001 202.06599
16.934299 17.134501 202.32001
17.2614 17.179701 202.853
17.427601 17.204399 203.144
17.597099 17.231899 203.46899
17.7712 17.263399 203.842
0.307246 16.8717 197.592
0.444619 16.864901 197.511
0.58174402 16.854099 197.38499
0.71876699 16.844999 197.27901
0.855564 16.8344 197.155
0.99212599 16.8228 197.01801
1.12854 16.811701 196.88901
1.26519 16.8062 196.82401
1.40144 16.7971 196.717
1.53748 16.787201 196.601
1.67364 16.7801 196.519
1.8096499 16.772699 196.43201
1.94508 16.7614 196.299
2.08146 16.759199 196.27299
2.2170999 16.7516 196.185
2.3533499 16.7493 196.158
2.4890399 16.7435 196.09
2.6248 16.7388 196.034
2.75965 16.728901 195.91901
2.8950901 16.7234 195.855
3.0301199 16.7162 195.77
3.1652901 16.7103 195.701
3.30126 16.7089 195.685
3.43591 16.7013 195.595
3.57095 16.695999 195.533
3.7051499 16.687401 195.43201
3.84059 16.6847 195.401
3.97507 16.6782 195.325
4.1090002 16.669901 195.228
4.2436299 16.6649 195.16901
4.37746 16.6572 195.078
4.51121 16.649599 194.99001
4.6449399 16.642401 194.905
4.7793102 16.6378 194.85201
4.91259 16.629801 194.758
5.04598 16.622601 194.673
5.1775298 16.6098 194.524
5.3101602 16.601101 194.422
5.4436698 16.595501 194.356
5.5760002 16.5867 194.25301
5.7091198 16.5805 194.181
5.8425102 16.5755 194.12199
5.97473 16.5674 194.02699
6.1072898 16.560499 193.94701
6.2396598 16.553499 193.86501
6.3719501 16.5466 193.784
6.5050101 16.541901 193.729
6.6378899 16.537001 193.67101
6.7709899 16.5327 193.621
6.9035802 16.5275 193.56
7.1683202 16.5165 193.43201
7.2999501 16.509701 193.35201
7.4319601 16.503901 193.284
7.5664601 16.503799 193.283
7.69947 16.5005 193.244
7.8311801 16.4946 193.174
7.9643202 16.4918 193.142
8.0972404 16.488701 193.105
8.2292299 16.483801 193.048
8.3622599 16.4811 193.017
8.4960203 16.4799 193.00301
8.7622299 16.475201 192.948
8.8947897 16.471901 192.909
9.0279799 16.4699 192.886
9.1616096 16.4688 192.87199
9.29527 16.467699 192.86
9.4292498 16.467199 192.854
9.5638199 16.467699 192.86
9.69629 16.464701 192.825
9.8293505 16.4627 192.802
10.6333 16.460699 192.77699
10.767 16.4599 192.76801
10.9021 16.461201 192.784
11.0368 16.461901 192.79201
11.1706 16.4613 192.785
11.3084 16.4667 192.847
11.4516 16.4795 192.998
11.5951 16.4925 193.14999
11.7347 16.499701 193.235
11.8763 16.509501 193.35001
12.0237 16.5271 193.556
12.1725 16.5462 193.77901
12.3242 16.568899 194.04401
12.4769 16.592199 194.31799
12.6332 16.6199 194.642
12.7921 16.6504 194.99899
12.9519 16.681299 195.36099
13.1098 16.7092 195.688
13.2732 16.7435 196.09
13.4323 16.771799 196.42101
13.5828 16.7887 196.619
13.7355 16.8081 196.84599
13.8926 16.832399 197.131
14.0474 16.8535 197.37801
14.1999 16.8715 197.588
14.3509 16.8873 197.774
14.5098 16.912001 198.063
14.6672 16.9345 198.327
14.8227 16.9545 198.56
15.1353 16.995001 199.035
15.2934 17.0168 199.28999
15.4547 17.0417 199.582
15.6231 17.0739 199.959
15.7911 17.105101 200.32401
15.9545 17.1308 200.625
16.1187 17.1569 200.931
16.2801 17.1796 201.19701
16.4398 17.200199 201.438
16.6038 17.2248 201.72701
16.7605 17.2416 201.923
17.0825 17.2829 202.40601
17.2474 17.3069 202.688
17.4139 17.3323 202.985
17.752701 17.3873 203.629
17.933701 17.4254 204.076
0.30728799 17.0117 197.619
0.44466999 17.0044 197.534
0.581783 16.992701 197.39799
0.71882403 16.983801 197.29401
0.85556298 16.971701 197.15401
0.99214602 16.9603 197.022
1.12857 16.949301 196.894
1.26526 16.944201 196.83501
1.40141 16.933599 196.71201
1.53741 16.9233 196.591
1.67362 16.9168 196.51601
1.80958 16.908899 196.424
1.94504 16.8978 196.295
2.08144 16.8957 196.271
2.2172201 16.8892 196.19501
2.35338 16.886101 196.16
2.48915 16.880899 196.099
2.6247699 16.875099 196.03101
2.7599299 16.8671 195.939
2.89522 16.8606 195.864
3.0302801 16.853399 195.78
3.16522 16.846201 195.69701
3.30123 16.8451 195.683
3.43576 16.8368 195.586
3.5708499 16.8318 195.528
3.70522 16.823799 195.436
3.8400199 16.8183 195.37199
3.9744699 16.811701 195.295
4.1083202 16.803101 195.19501
4.2429299 16.7981 195.13699
4.3762999 16.788601 195.02699
4.6430001 16.771099 194.82401
4.7768202 16.764799 194.75
4.9102201 16.757401 194.664
5.0431499 16.748699 194.564
5.1744599 16.735399 194.409
5.3064499 16.7248 194.286
5.43888 16.716101 194.185
5.5714302 16.7083 194.09399
5.8373899 16.695999 193.952
5.9692202 16.687099 193.84801
6.1017499 16.6805 193.771
6.2340598 16.673599 193.69099
6.3670001 16.6686 193.633
6.4997501 16.663401 193.57201
6.63236 16.658001 193.50999
6.8977299 16.648199 193.396
7.0296402 16.641701 193.321
7.1623001 16.6373 193.269
7.2939601 16.630699 193.19299
7.4259901 16.6252 193.129
7.55901 16.622101 193.092
7.6925902 16.620199 193.071
7.8248501 16.6157 193.01801
7.95748 16.612101 192.976
8.09095 16.6103 192.955
8.3561897 16.6035 192.877
8.48944 16.6015 192.853
8.6225204 16.599199 192.827
8.7550497 16.596001 192.789
8.8874998 16.592699 192.75101
9.0205898 16.5907 192.728
9.1546402 16.5905 192.72501
9.6880598 16.5849 192.661
9.8206902 16.582399 192.632
9.9543304 16.5816 192.623
10.0893 16.583099 192.64
10.224 16.584 192.64999
10.3585 16.5846 192.657
10.4942 16.587099 192.686
10.6267 16.5846 192.658
10.7594 16.5825 192.632
10.8943 16.583599 192.646
11.0288 16.5842 192.653
11.1617 16.582399 192.632
11.3014 16.590599 192.72701
11.4442 16.603201 192.873
11.5885 16.617599 193.03999
11.7296 16.6271 193.14999
11.8701 16.6355 193.24899
12.0172 16.652901 193.45
12.3149 16.691299 193.897
12.4653 16.712 194.138
12.6239 16.743099 194.49899
12.781 16.771601 194.82899
12.9368 16.797899 195.13499
13.0974 16.829599 195.504
13.2636 16.867901 195.948
13.4235 16.8974 196.291
13.5736 16.914301 196.487
13.7272 16.934999 196.72701
13.8848 16.960199 197.02
14.0411 16.9834 197.289
14.1926 17.000299 197.48599
14.3434 17.0161 197.66901
14.502 17.040701 197.95599
14.6602 17.064501 198.23199
14.8161 17.0851 198.472
14.971 17.1043 198.694
15.1277 17.125099 198.936
15.2859 17.1472 199.19299
15.4458 17.1707 199.466
15.6111 17.200001 199.806
15.7781 17.2304 200.159
15.9421 17.257099 200.46899
16.1066 17.283899 200.78
16.2714 17.3104 201.089
16.430799 17.3309 201.327
16.590401 17.351299 201.563
16.75 17.3713 201.79601
16.9084 17.3897 202.00999
17.071699 17.4128 202.27901
17.2356 17.436199 202.55
17.4 17.4597 202.823
17.5672 17.4856 203.123
17.738001 17.5145 203.46001
17.915701 17.5499 203.871
0.307347 17.152599 197.657
0.44473901 17.144699 197.565
0.581846 17.132099 197.41901
0.71889001 17.122801 197.312
0.85564101 17.1106 197.172
0.99223 17.099001 197.039
1.12863 17.087299 196.90401
1.26535 17.0826 196.849
1.40152 17.0721 196.728
1.5375299 17.061501 196.60699
1.67377 17.055201 196.534
1.80971 17.0469 196.438
1.94516 17.0355 196.30701
2.0815401 17.033199 196.28
2.21736 17.026899 196.20799
2.3534801 17.0235 196.168
2.48926 17.0182 196.10699
2.6249001 17.012501 196.041
2.7601399 17.004801 195.953
2.8952999 16.997499 195.869
3.0304201 16.990601 195.789
3.16539 16.9834 195.707
3.3011999 16.981199 195.681
3.43557 16.972099 195.576
3.5706999 16.967199 195.52
3.70487 16.9583 195.41701
3.83939 16.951599 195.34
3.9735999 16.944099 195.25301
4.1075001 16.935699 195.157
4.2416101 16.928699 195.076
4.3749399 16.919201 194.966
4.5076599 16.9079 194.836
4.6412301 16.9004 194.75
4.7737999 16.8897 194.627
4.9065499 16.880301 194.51801
5.0392699 16.8713 194.414
5.303 16.849199 194.16
5.43431 16.8372 194.022
5.5669398 16.829901 193.937
5.6999602 16.823999 193.869
5.83252 16.817101 193.78999
6.09584 16.7992 193.58299
6.2280502 16.792299 193.504
6.3607402 16.787001 193.44299
6.6261201 16.777 193.327
6.7588301 16.772301 193.274
6.8913002 16.7673 193.216
7.0236902 16.762199 193.157
7.1561198 16.757401 193.10201
7.2881398 16.7519 193.039
7.4200602 16.7463 192.97501
7.5521798 16.7414 192.918
7.68641 16.741301 192.916
7.9505701 16.731899 192.80901
8.0840902 16.730499 192.79201
8.2167101 16.7272 192.754
8.3490295 16.723499 192.711
8.4823799 16.721901 192.69299
8.6149998 16.718901 192.659
8.88027 16.7134 192.595
9.0132303 16.7113 192.571
9.1469603 16.710699 192.564
9.2790203 16.7071 192.522
9.4131603 16.7073 192.52499
9.5470304 16.707001 192.522
9.6811504 16.707199 192.52299
9.8133297 16.704 192.487
9.9470196 16.703501 192.481
10.0818 16.7048 192.496
10.2152 16.703899 192.485
10.35 16.7052 192.50101
10.4845 16.7059 192.508
10.6192 16.7071 192.522
11.1566 16.7089 192.543
11.2962 16.717199 192.63901
11.4377 16.7279 192.76199
11.7242 16.753901 193.061
11.8659 16.764099 193.17999
12.0098 16.777399 193.332
12.1589 16.7974 193.563
12.3065 16.815001 193.765
12.455 16.833401 193.978
12.6135 16.8647 194.339
12.7689 16.891399 194.646
12.9233 16.916 194.92999
13.0869 16.9522 195.347
13.2512 16.9884 195.76401
13.4116 17.0191 196.118
13.5645 17.0397 196.355
13.7176 17.060101 196.59
13.8764 17.087099 196.901
14.0332 17.111099 197.17799
14.1848 17.128401 197.377
14.3374 17.146601 197.58701
14.4944 17.1696 197.85201
14.6538 17.195101 198.146
14.8075 17.2134 198.35699
14.9607 17.230801 198.55701
15.1181 17.2526 198.80901
15.2773 17.276199 199.08099
15.4364 17.2992 199.34599
15.6 17.3267 199.66299
15.7639 17.354099 199.979
15.9294 17.382799 200.30901
16.092199 17.4081 200.60001
16.259199 17.4375 200.939
16.4224 17.462299 201.22501
16.5797 17.4804 201.43401
16.740601 17.502001 201.683
16.8962 17.517799 201.864
17.0588 17.5404 202.125
17.2244 17.565901 202.418
17.386 17.5868 202.659
17.5522 17.612 202.95
17.901199 17.677601 203.70599
0.307374 17.2918 197.674
0.44475701 17.283001 197.573
0.58187801 17.2705 197.42999
0.71892399 17.261 197.32201
0.855685 17.2488 197.18201
0.99227703 17.237101 197.048
1.12869 17.2255 196.916
1.26531 17.2192 196.843
1.40161 17.2101 196.74001
1.53776 17.201 196.636
1.674 17.194401 196.561
1.80994 17.1859 196.464
1.94538 17.1742 196.32899
2.0818 17.1721 196.30499
2.2174699 17.164499 196.218
2.3536699 17.1616 196.185
2.48928 17.1549 196.108
2.6249101 17.149099 196.04201
2.7601399 17.141399 195.95399
2.8952999 17.1339 195.869
3.0304301 17.127001 195.78999
3.1654601 17.1201 195.711
3.3010001 17.116501 195.66901
3.4352901 17.106899 195.56
3.56987 17.0994 195.474
3.70417 17.0912 195.381
3.8382499 17.0826 195.282
3.9723899 17.0749 195.194
4.1065402 17.0676 195.11099
4.2397399 17.0571 194.99001
4.5055799 17.0357 194.746
4.6391301 17.028299 194.662
4.77106 17.015499 194.515
4.9031801 17.004101 194.38499
5.1671 16.982 194.132
5.2990799 16.971901 194.01601
5.4302602 16.9597 193.87801
5.5625801 16.9517 193.785
5.6944199 16.9426 193.681
5.82616 16.933599 193.578
5.95789 16.9249 193.48
6.09026 16.918501 193.40601
6.22189 16.910299 193.313
6.35425 16.9044 193.245
6.4871001 16.900101 193.19501
6.6195302 16.8948 193.13499
6.8844199 16.885 193.02299
7.0167198 16.879999 192.966
7.1493502 16.875999 192.92
7.28089 16.8696 192.847
7.5447998 16.859301 192.729
7.6794701 16.860399 192.742
7.8121901 16.8573 192.70599
7.9439101 16.8521 192.647
8.0766401 16.849199 192.614
8.3417501 16.843 192.543
8.4752302 16.8419 192.53101
8.6087503 16.8409 192.519
8.7409801 16.8375 192.48
8.8740797 16.8358 192.46001
9.0066099 16.833 192.429
9.1395998 16.8312 192.409
9.2722301 16.828899 192.382
9.8067799 16.8269 192.35899
9.9398003 16.825399 192.342
10.0733 16.824699 192.334
10.2069 16.824301 192.32899
10.3419 16.826 192.349
10.477 16.8279 192.371
10.6113 16.828501 192.377
10.7445 16.8274 192.36501
10.8783 16.8272 192.36301
11.0142 16.8302 192.397
11.1511 16.8347 192.448
11.4324 16.854401 192.673
11.5749 16.8666 192.813
11.861 16.891701 193.10001
12.0037 16.9034 193.233
12.1531 16.924101 193.47
12.2982 16.938499 193.634
12.446 16.9562 193.83701
12.6014 16.983801 194.15199
12.7602 17.015301 194.51199
12.9142 17.0399 194.793
13.0749 17.072599 195.168
13.2369 17.1064 195.554
13.3991 17.1397 195.93401
13.554 17.163099 196.202
13.7088 17.1859 196.463
13.8692 17.2152 196.798
14.0247 17.2381 197.05901
14.1783 17.257999 197.287
14.3318 17.2775 197.50999
14.487 17.2987 197.752
14.6457 17.3235 198.036
14.7994 17.3421 198.248
14.9518 17.358801 198.439
15.1091 17.380899 198.692
15.2691 17.4056 198.974
15.4271 17.4275 199.22501
15.5906 17.455299 199.543
15.7512 17.479401 199.81799
15.9148 17.5063 200.125
16.0798 17.5343 200.446
16.2465 17.5637 200.78101
16.4119 17.5912 201.09599
16.570299 17.610701 201.319
16.731701 17.633101 201.575
16.888201 17.65 201.76801
17.048 17.670099 201.998
17.213301 17.6954 202.287
17.3736 17.7153 202.515
17.540199 17.741199 202.811
17.7118 17.7717 203.16
17.8866 17.805 203.53999
18.0606 17.8368 203.90401
0.307354 17.4284 197.661
0.444749 17.4203 197.569
0.58190501 17.4088 197.439
0.718943 17.398899 197.327
0.855721 17.3869 197.19099
0.99229801 17.374701 197.052
1.12875 17.363501 196.92599
1.26542 17.3578 196.86099
1.40177 17.349199 196.763
1.53801 17.3409 196.66901
1.67418 17.3332 196.582
1.81019 17.3251 196.49001
1.9456199 17.313101 196.353
2.0819399 17.309999 196.31799
2.21755 17.301701 196.22501
2.3538201 17.299299 196.19701
2.4893301 17.2918 196.112
2.62498 17.2861 196.047
2.7600901 17.2775 195.95
2.8951399 17.2694 195.858
3.03034 17.262899 195.784
3.16557 17.257099 195.718
3.3006999 17.2512 195.65199
3.4344399 17.2388 195.511
3.5687101 17.23 195.411
3.7030699 17.2222 195.323
3.8368399 17.212299 195.21001
3.9707501 17.203699 195.11301
4.1052098 17.198 195.048
4.2376699 17.1845 194.895
4.3703699 17.1728 194.763
4.5030298 17.1616 194.636
4.7681599 17.1406 194.397
4.8998799 17.128 194.254
5.03127 17.114901 194.106
5.1627698 17.1029 193.96899
5.2944398 17.091999 193.84599
5.4257798 17.0807 193.718
5.6887498 17.060499 193.48801
5.82019 17.0509 193.38
5.9510298 17.0401 193.257
6.08357 17.0345 193.194
6.21561 17.0278 193.118
6.4807 17.017799 193.005
6.6131101 17.0128 192.948
6.74545 17.007799 192.89101
6.8782401 17.004101 192.85001
7.1423101 16.993601 192.73
7.2740102 16.987801 192.664
7.4060202 16.983 192.60899
7.53829 16.978901 192.563
7.6732998 16.981001 192.58701
7.80618 16.978399 192.558
7.9382 16.9741 192.508
8.0700197 16.9695 192.45599
8.2024298 16.9662 192.41901
8.3353395 16.9641 192.395
8.4689198 16.9634 192.38699
8.60219 16.962099 192.37199
8.7353497 16.9606 192.356
8.8676996 16.9576 192.32201
8.9993601 16.9534 192.274
9.1319799 16.951099 192.248
9.2651396 16.9499 192.23399
9.3978395 16.947901 192.21201
9.5313101 16.9473 192.205
9.6653299 16.947701 192.209
9.7988501 16.947201 192.203
9.9325399 16.947001 192.201
10.0656 16.9457 192.187
10.1996 16.9461 192.19099
10.3331 16.945601 192.186
10.468 16.947399 192.20599
10.6017 16.9473 192.205
10.7358 16.947701 192.21001
10.871 16.9499 192.235
11.0079 16.954599 192.28799
11.1458 16.960699 192.35699
11.286 16.9702 192.464
11.4271 16.980801 192.58501
11.5694 16.9928 192.72099
11.7108 17.003401 192.841
11.856 17.018999 193.01801
11.9992 17.0317 193.162
12.1474 17.0509 193.38
12.2914 17.0639 193.52699
12.4384 17.080799 193.71899
12.5908 17.1047 193.99001
12.7505 17.137699 194.364
12.9055 17.164 194.662
13.0639 17.194099 195.004
13.2242 17.226 195.366
13.3875 17.2612 195.765
13.5452 17.288601 196.076
13.6993 17.310801 196.328
13.8597 17.3405 196.664
14.0159 17.364401 196.936
14.169 17.3841 197.158
14.3245 17.4062 197.409
14.4795 17.427401 197.64999
14.6359 17.4498 197.90401
14.7924 17.471901 198.15401
14.9448 17.4888 198.34599
15.1018 17.510799 198.59599
15.2609 17.5347 198.867
15.4199 17.5581 199.132
15.5818 17.584299 199.42999
15.7416 17.607901 199.69701
15.9017 17.631201 199.961
16.0674 17.660299 200.291
16.235001 17.691 200.64
16.399401 17.717699 200.94299
16.5585 17.7383 201.17599
16.720699 17.761801 201.442
16.880899 17.7829 201.68201
17.039101 17.8015 201.89301
17.365101 17.8477 202.416
17.528 17.8701 202.67
17.696899 17.898199 202.989
17.871401 17.9314 203.366
18.047001 17.9653 203.75101
18.224001 18 204.144
0.307363 17.566601 197.66701
0.44475901 17.5583 197.573
0.581918 17.546801 197.444
0.71897697 17.537201 197.336
0.85571998 17.5242 197.19
0.99232 17.5123 197.056
1.12881 17.501699 196.936
1.26564 17.4979 196.894
1.40204 17.489599 196.80099
1.5383 17.481199 196.70599
1.67448 17.4732 196.617
1.81045 17.4646 196.519
1.9457901 17.4513 196.37
2.08198 17.4471 196.32201
2.2176099 17.4389 196.23
2.3538799 17.436399 196.202
2.48949 17.429501 196.125
2.6252999 17.4247 196.071
2.76016 17.4144 195.955
2.89503 17.405199 195.851
3.03005 17.3976 195.765
3.1653199 17.392 195.702
3.3001299 17.384501 195.618
3.434 17.372801 195.487
3.56779 17.361601 195.36
3.70154 17.351101 195.242
3.83518 17.340799 195.12601
3.96874 17.330799 195.01401
4.1028099 17.3237 194.93401
4.2349501 17.309099 194.77
4.3675399 17.2973 194.636
4.4994302 17.2834 194.481
4.6321802 17.2735 194.37
4.8959599 17.249399 194.09801
5.0268202 17.2349 193.93401
5.1574202 17.2201 193.769
5.2885399 17.2078 193.63
5.4204702 17.198799 193.528
5.55194 17.1887 193.41499
5.8144498 17.1686 193.189
5.9455299 17.1588 193.078
6.2091498 17.1444 192.91701
6.3410702 17.138 192.845
6.4734402 17.133101 192.789
6.6059599 17.1287 192.739
6.8716102 17.121901 192.66299
7.0040798 17.117901 192.618
7.1361098 17.113001 192.563
7.2681799 17.108299 192.50999
7.5314298 17.097401 192.388
7.6652002 17.097099 192.384
7.7994099 17.0977 192.39101
7.9313698 17.093399 192.343
8.0628901 17.0884 192.286
8.1954002 17.0856 192.255
8.5952597 17.0823 192.218
8.7291002 17.0823 192.218
8.8605404 17.077801 192.16701
8.9923401 17.073999 192.12399
9.1248798 17.0718 192.099
9.2584896 17.071501 192.09599
9.3917198 17.070601 192.086
9.5243502 17.068701 192.064
9.6575899 17.0679 192.05499
10.3255 17.066799 192.043
10.4589 17.066401 192.039
10.5917 17.065001 192.02299
10.7269 17.0674 192.05
10.8631 17.071301 192.09399
11.1397 17.0854 192.252
11.2804 17.0958 192.369
11.4221 17.1075 192.50101
11.5632 17.117901 192.618
11.7051 17.129299 192.746
11.8494 17.1439 192.911
11.9942 17.158899 193.08
12.1404 17.1756 193.26801
12.2848 17.189501 193.424
12.4312 17.2057 193.606
12.5815 17.226999 193.84599
12.7406 17.259701 194.213
12.8967 17.287701 194.528
13.0528 17.3151 194.838
13.2139 17.3486 195.214
13.3771 17.384001 195.61301
13.5356 17.4128 195.936
13.6919 17.438101 196.22099
13.8479 17.4625 196.496
14.0055 17.488501 196.789
14.1609 17.5114 197.045
14.4704 17.5539 197.524
14.6268 17.5767 197.78101
14.9369 17.617701 198.242
15.0939 17.6399 198.492
15.2526 17.663601 198.759
15.4135 17.6894 199.049
15.5737 17.7141 199.327
15.7326 17.736799 199.582
15.8931 17.760799 199.853
16.058701 17.790199 200.183
16.223499 17.8181 200.498
16.386299 17.8435 200.783
16.5481 17.867201 201.05
16.708401 17.889 201.295
16.8706 17.912399 201.558
17.1915 17.9545 202.032
17.356899 17.9802 202.321
17.6812 18.0236 202.80901
17.8571 18.058599 203.20399
18.0352 18.0954 203.617
18.3979 18.173599 204.498
0.30737799 17.705099 197.67599
0.444778 17.6966 197.582
0.58192801 17.684601 197.44701
0.719006 17.6754 197.34399
0.85577899 17.6628 197.20399
0.99234098 17.65 197.061
1.1288199 17.639 196.938
1.2656 17.634501 196.888
1.40209 17.6273 196.808
1.5384099 17.619499 196.72
1.6747299 17.612801 196.646
1.81064 17.6033 196.539
1.9458801 17.5889 196.379
2.0820601 17.584499 196.33
2.21787 17.5776 196.25301
2.3540299 17.5742 196.214
2.4894099 17.565599 196.118
2.6252799 17.561199 196.07001
2.7599299 17.5494 195.938
2.8947699 17.540001 195.83299
3.0297599 17.5322 195.746
3.16487 17.525801 195.675
3.29916 17.5156 195.561
3.4329 17.503401 195.424
3.56675 17.492599 195.304
3.7003801 17.4816 195.181
3.83354 17.4692 195.043
3.96663 17.457399 194.911
4.1001101 17.448 194.80499
4.2318201 17.4319 194.62601
4.36409 17.419001 194.48199
4.4960399 17.405701 194.334
4.7589102 17.3776 194.02
5.0218101 17.3526 193.741
5.1523499 17.337999 193.578
5.28301 17.3246 193.42799
5.4145398 17.3146 193.31599
5.5458698 17.304501 193.203
5.6763601 17.2922 193.067
5.8078098 17.283501 192.96899
5.9397998 17.2766 192.89301
6.0713201 17.268801 192.80499
6.2037101 17.2637 192.748
6.4678998 17.252501 192.62399
6.6002402 17.247999 192.57201
6.7326398 17.2437 192.52499
6.8660898 17.2423 192.509
6.9980001 17.237101 192.451
7.2619801 17.227699 192.34599
