# .PCD v0.7 - Point Cloud Data file format
VERSION 0.7
FIELDS x y z
SIZE 4 4 4
TYPE F F F
COUNT 1 1 1
WIDTH 1798
HEIGHT 1
VIEWPOINT 0 0 0 1 0 0 0
POINTS 1798
DATA ascii
8.0922003 19.5149 189.834
8.2294197 19.526899 189.95
8.5082798 19.559999 190.272
8.6462603 19.5725 190.394
8.7855396 19.5875 190.53999
8.9256496 19.603901 190.69901
9.0657597 19.6199 190.854
9.2065096 19.6367 191.01801
9.3453102 19.648899 191.13699
9.48557 19.663799 191.282
9.6266203 19.68 191.439
9.7688904 19.698099 191.616
9.91082 19.715099 191.78101
10.1986 19.755199 192.17101
10.3404 19.770599 192.321
10.483 19.7871 192.481
10.6287 19.809 192.694
10.7751 19.831499 192.91299
11.0695 19.8778 193.364
11.2181 19.902599 193.604
11.3647 19.9233 193.806
11.512 19.944799 194.015
11.6612 19.969 194.25101
11.8095 19.9911 194.466
11.9554 20.008699 194.63699
12.1013 20.0259 194.804
12.2509 20.048901 195.028
12.4002 20.070801 195.241
12.5496 20.0924 195.451
12.699 20.1134 195.655
12.8467 20.1315 195.832
12.9932 20.147301 195.985
13.1445 20.170099 196.207
13.2954 20.191799 196.418
13.4464 20.213301 196.627
13.754 20.2631 197.11099
13.9078 20.287201 197.34599
14.0571 20.304501 197.51401
14.2139 20.3321 197.783
14.3705 20.3589 198.043
14.5233 20.379801 198.24699
14.8214 20.4102 198.543
15.1346 20.4599 199.026
15.2894 20.481701 199.23801
15.4447 20.503799 199.453
15.6002 20.5257 199.666
15.7537 20.5446 199.85001
17.8846 20.9216 203.517
18.0516 20.951 203.80299
18.393999 21.0179 204.45399
0.56016397 19.670799 190.063
0.692186 19.6626 189.983
0.95575303 19.643101 189.795
1.21863 19.621099 189.582
1.3497699 19.608801 189.463
1.61257 19.5968 189.347
1.74387 19.591101 189.29201
1.87497 19.584 189.22301
2.00616 19.578699 189.173
2.13715 19.5723 189.11099
2.2680199 19.5655 189.045
2.39908 19.5611 189.002
2.52981 19.5546 188.939
2.66064 19.5494 188.88901
2.7920799 19.549 188.886
2.9224801 19.5418 188.81599
3.0533199 19.537901 188.778
3.1835999 19.530899 188.711
3.31411 19.525801 188.662
3.4442501 19.5191 188.59599
3.5747399 19.5147 188.55299
3.7049699 19.509199 188.50101
3.83568 19.506599 188.476
3.96614 19.502899 188.44
4.0965099 19.4991 188.403
4.22644 19.493401 188.34801
4.3573999 19.492701 188.341
4.4883599 19.4921 188.33501
4.6177802 19.4849 188.26601
4.7483902 19.483 188.248
4.8798599 19.484699 188.26401
5.0099001 19.4807 188.226
5.1420698 19.4851 188.26801
5.2736301 19.4869 188.285
5.4060702 19.4918 188.33299
5.6719198 19.504299 188.45399
5.8045702 19.509199 188.50101
5.9375801 19.5151 188.558
6.0707402 19.5212 188.616
6.2042098 19.528 188.68201
6.3379502 19.535299 188.75301
6.47082 19.539801 188.79601
6.6037598 19.5443 188.84
6.8709002 19.556299 188.95599
7.0054898 19.5648 189.03799
7.1417198 19.577499 189.161
7.2786002 19.591499 189.29601
7.4131799 19.5989 189.367
7.54843 19.6078 189.453
7.6844702 19.618299 189.55499
7.8200898 19.627501 189.644
7.9572201 19.6401 189.76601
8.0943699 19.652399 189.884
8.2320404 19.665501 190.011
8.3720398 19.683599 190.186
8.51229 19.701799 190.362
8.6509104 19.7157 190.496
8.7904396 19.731199 190.646
8.9306803 19.7479 190.80701
9.0714903 19.765301 190.97501
9.2121601 19.781799 191.13499
9.3520699 19.796301 191.27499
9.4914999 19.809401 191.40199
9.6331596 19.826799 191.569
9.7754698 19.8449 191.745
9.9181604 19.8634 191.923
10.0635 19.886499 192.146
10.2055 19.9027 192.30299
10.349 19.9212 192.48199
10.4933 19.940599 192.66901
10.6374 19.959499 192.851
10.7845 19.983299 193.08099
10.9315 20.0063 193.304
11.0812 20.0336 193.56799
11.2295 20.0578 193.80099
11.3759 20.0781 193.998
11.6725 20.1238 194.439
11.8217 20.147301 194.66701
11.9681 20.165701 194.84399
12.1145 20.183599 195.017
12.2646 20.2073 195.246
12.4155 20.231701 195.48199
12.7146 20.2745 195.896
13.0129 20.314501 196.282
13.1656 20.339399 196.522
13.3184 20.363701 196.757
13.4691 20.384501 196.95799
13.9337 20.4627 197.714
14.0836 20.4807 197.88699
14.2394 20.506599 198.138
14.3967 20.534201 198.405
14.5495 20.554899 198.605
14.85 20.5882 198.92599
15.0067 20.613199 199.16701
15.1644 20.639099 199.418
15.3253 20.6689 199.70599
15.4776 20.6866 199.877
15.634 20.709499 200.09801
15.7938 20.736401 200.358
17.913099 21.096901 203.841
18.440001 21.213301 204.966
0.427591 19.791201 189.94701
0.69135797 19.771299 189.756
0.82304698 19.7614 189.661
1.0860699 19.7425 189.48
1.21751 19.7349 189.407
1.34859 19.7236 189.298
1.4798599 19.7167 189.23199
1.61104 19.709999 189.168
1.7422301 19.7043 189.11301
1.87321 19.6973 189.04601
2.0045199 19.6943 189.017
2.13552 19.688999 188.966
2.2663 19.682301 188.90199
2.39698 19.675501 188.83701
2.52775 19.670099 188.785
2.6582699 19.6635 188.72099
2.78968 19.6637 188.72301
2.9202399 19.658199 188.67101
3.0510499 19.6548 188.638
3.1814599 19.649099 188.584
3.31177 19.643299 188.528
3.44174 19.636101 188.45799
3.7023101 19.6264 188.366
3.8329599 19.624001 188.342
3.9635899 19.621599 188.319
4.0939102 19.6178 188.283
4.2237601 19.6122 188.229
4.4851298 19.6091 188.19901
4.6151199 19.6047 188.158
4.74575 19.603201 188.14301
4.8776999 19.607201 188.181
5.0085001 19.6064 188.174
5.14048 19.6101 188.209
5.2720098 19.612 188.22701
5.4049501 19.6189 188.29401
5.5377898 19.6252 188.354
5.8034701 19.636801 188.465
5.93682 19.6439 188.534
6.0700202 19.6502 188.59399
6.2030702 19.6558 188.64799
6.3375702 19.6656 188.742
6.4704599 19.6702 188.786
6.6037698 19.6758 188.84
6.7377901 19.6833 188.911
6.8715501 19.689699 188.97301
7.0061498 19.698299 189.05499
7.1426501 19.7118 189.185
7.2796602 19.7262 189.323
7.4145098 19.734301 189.401
7.5497899 19.743299 189.487
7.6858301 19.753901 189.589
7.82195 19.764299 189.689
7.9591198 19.7771 189.811
8.0978699 19.7932 189.966
8.3776398 19.829399 190.314
8.6564598 19.861099 190.618
8.7961702 19.877001 190.77
8.9372501 19.895399 190.94701
9.07726 19.9109 191.09599
9.2185202 19.928699 191.267
9.3587704 19.943899 191.412
9.4989204 19.958401 191.552
9.6407299 19.975901 191.72
9.7834196 19.994699 191.901
9.9287596 20.0184 192.12801
10.0722 20.0376 192.312
10.2151 20.0555 192.48399
10.3588 20.074301 192.664
10.5042 20.0958 192.871
10.798 20.1429 193.323
10.9456 20.166901 193.55299
11.2437 20.2183 194.047
11.3898 20.2379 194.235
11.5375 20.2598 194.44501
11.6876 20.2854 194.69099
11.9835 20.3276 195.09599
12.1303 20.346001 195.272
12.2816 20.371401 195.51601
12.4348 20.3995 195.785
12.5831 20.419001 195.97301
12.7332 20.440901 196.18201
13.0387 20.4918 196.672
13.1892 20.512899 196.873
13.3425 20.538 197.114
13.4963 20.563101 197.356
13.8068 20.616501 197.868
13.9606 20.6402 198.09599
14.267 20.684601 198.521
14.4251 20.7131 198.795
14.5761 20.7311 198.968
14.7254 20.7463 199.114
14.8833 20.773199 199.37199
15.0419 20.8006 199.63499
15.2016 20.829 199.908
15.5155 20.8769 200.367
15.8307 20.924801 200.827
15.9992 20.962299 201.187
0.42717201 19.903999 189.761
0.55897897 19.8934 189.661
0.82225299 19.8743 189.478
0.95368397 19.864401 189.384
1.21635 19.848 189.22701
1.34737 19.8375 189.127
1.60965 19.824699 189.005
1.74063 19.817801 188.939
1.87137 19.8095 188.86
2.0028999 19.809999 188.86501
2.1338301 19.804899 188.817
2.2645199 19.7983 188.754
2.3950601 19.791201 188.686
2.5258801 19.787001 188.646
2.6561201 19.7789 188.56799
2.7872901 19.7782 188.562
2.9180501 19.774799 188.52901
3.04864 19.7705 188.48801
3.1789601 19.7649 188.435
3.3093801 19.760401 188.392
3.43908 19.7521 188.313
3.5694799 19.748301 188.276
3.6996701 19.7435 188.231
3.83008 19.740299 188.201
3.9605 19.737301 188.172
4.2210398 19.7306 188.108
4.3517799 19.729601 188.09801
4.48246 19.728399 188.08701
4.6126399 19.725201 188.056
4.74333 19.724199 188.048
4.8754601 19.7292 188.095
5.00705 19.731701 188.119
5.1391301 19.736 188.16
5.2709098 19.739 188.188
5.4039998 19.746599 188.261
5.5369802 19.7535 188.326
5.6697698 19.759399 188.382
5.8026099 19.7651 188.437
5.9361 19.7728 188.511
6.0694098 19.7796 188.575
6.2023101 19.7848 188.625
6.3373599 19.796499 188.73599
6.47087 19.802999 188.798
6.6042399 19.8088 188.853
6.7381301 19.815901 188.92101
6.8726101 19.8244 189.00301
7.0079699 19.8351 189.105
7.1445999 19.849001 189.237
7.2810302 19.861799 189.35899
7.4167099 19.872101 189.457
7.5527101 19.8829 189.56
7.6894102 19.895201 189.677
7.8268299 19.908899 189.808
7.96346 19.920099 189.91499
8.2427301 19.9561 190.258
8.5244703 19.9956 190.634
8.6637897 20.0109 190.78
8.8035698 20.026699 190.931
8.9448299 20.045401 191.10899
9.0844603 20.059999 191.248
9.2268801 20.080099 191.44099
9.3669395 20.0947 191.57899
9.50805 20.111099 191.73599
9.6509399 20.130699 191.923
9.7946196 20.1514 192.12
9.93997 20.174999 192.345
10.0817 20.1908 192.495
10.227 20.2131 192.70799
10.3709 20.232 192.88901
10.5181 20.257 193.12601
10.6661 20.2826 193.371
10.8143 20.3083 193.61501
10.9611 20.3305 193.828
11.1116 20.3591 194.10001
11.2597 20.3825 194.323
11.4057 20.401699 194.507
11.5551 20.4263 194.741
11.7058 20.4529 194.994
11.854 20.4744 195.19901
12.0006 20.492599 195.373
12.1494 20.5142 195.57899
12.3032 20.5436 195.85899
12.457 20.5725 196.134
12.608 20.596201 196.36
12.7569 20.6159 196.548
13.0658 20.6717 197.08
13.2176 20.6945 197.297
13.5247 20.744101 197.771
13.6827 20.775 198.065
13.9883 20.8195 198.489
14.144 20.845301 198.735
14.2987 20.8692 198.963
14.4572 20.8981 199.239
14.6068 20.9137 199.388
14.7621 20.937 199.61
14.9231 20.968 199.905
15.0844 20.9988 200.19901
15.2361 21.0158 200.36099
15.3954 21.0429 200.619
15.5522 21.0662 200.841
15.7111 21.0917 201.08501
15.8789 21.1287 201.437
16.0459 21.164 201.774
16.4606 20.2901 193.442
0.030884201 20.0485 189.87801
0.294927 20.0264 189.66901
0.426781 20.017799 189.58701
0.55843103 20.005899 189.47501
0.69001198 19.996599 189.386
0.821446 19.9867 189.29201
0.95285499 19.979 189.21899
1.084 19.9683 189.118
1.21531 19.962601 189.065
1.47734 19.9464 188.911
1.60831 19.9396 188.847
1.7391 19.9319 188.774
1.8698 19.924299 188.702
2.00108 19.9235 188.694
2.1319699 19.9191 188.65199
2.2625101 19.9121 188.586
2.39307 19.906099 188.52901
2.5239 19.9028 188.498
2.65415 19.8955 188.429
2.7852199 19.8948 188.422
2.91605 19.892401 188.39999
3.0464399 19.8874 188.353
3.17658 19.8813 188.29401
3.3071699 19.8783 188.26601
3.4366 19.8689 188.177
3.56692 19.865101 188.14101
3.69731 19.862 188.112
3.8276801 19.8589 188.08299
3.9579699 19.8557 188.052
4.0885501 19.854099 188.037
4.2186198 19.850201 188
4.3495102 19.8503 188
4.4801402 19.849199 187.99001
4.6108298 19.8484 187.983
4.7416902 19.8484 187.98199
4.8736901 19.853001 188.026
5.0057502 19.857599 188.07001
5.13798 19.8627 188.118
5.2698598 19.8661 188.151
5.4031701 19.874701 188.23199
5.5365801 19.8832 188.313
5.6694598 19.8895 188.37199
5.8018999 19.893999 188.414
5.9356999 19.9028 188.498
6.0692701 19.9105 188.571
6.2019601 19.915001 188.614
6.33742 19.928101 188.73801
6.4718199 19.937401 188.826
6.7393098 19.951 188.95399
6.8748698 19.962601 189.065
7.0110202 19.9755 189.187
7.1470799 19.9877 189.302
7.2832999 19.999901 189.418
7.4202099 20.0135 189.547
7.6953101 20.0427 189.823
7.83393 20.0592 189.98
8.1093102 20.086201 190.235
8.3908501 20.1262 190.614
8.5321703 20.1465 190.80701
8.6723404 20.163601 190.968
8.8129902 20.181299 191.13499
8.9526901 20.196199 191.27699
9.0925903 20.211201 191.41901
9.2365904 20.2348 191.642
9.37848 20.253099 191.815
9.5199203 20.269899 191.97501
9.66222 20.288099 192.147
9.8076496 20.312201 192.37601
9.9527197 20.334999 192.592
10.0965 20.354601 192.77699
10.2398 20.3727 192.948
10.3851 20.3943 193.153
10.6834 20.4505 193.685
10.8307 20.474001 193.908
11.1291 20.526501 194.40601
11.2764 20.5483 194.61099
11.4237 20.5695 194.813
11.5754 20.5982 195.08501
11.7234 20.619699 195.28799
11.873 20.6434 195.51199
12.0227 20.666599 195.73199
12.4863 20.757799 196.59599
12.7843 20.7974 196.97099
12.9427 20.8316 197.29401
13.2426 20.8713 197.67101
13.5531 20.9258 198.187
13.7104 20.955299 198.466
13.865 20.9802 198.702
14.0169 21.000601 198.895
14.1712 21.024099 199.117
14.3292 21.052601 199.388
14.4853 21.0777 199.625
14.6419 21.1031 199.866
14.8016 21.132401 200.144
14.9601 21.1595 200.39999
15.1191 21.186899 200.66
15.4371 21.24 201.16299
15.5998 21.270901 201.455
15.7635 21.302601 201.756
15.932 21.3402 202.112
16.098101 21.374001 202.431
16.271099 21.4161 202.83099
16.4338 21.444099 203.09599
16.5849 21.4568 203.216
16.745399 21.481199 203.44701
16.9053 21.504499 203.66701
-0.101257 20.172199 189.797
0.0308511 20.1591 189.675
0.162808 20.1485 189.575
0.42639801 20.1318 189.41701
0.55795598 20.1208 189.314
0.82072198 20.1008 189.12601
0.952016 20.0931 189.05299
1.2143101 20.0777 188.909
1.34521 20.068701 188.82401
1.47621 20.062599 188.76601
1.73791 20.049601 188.644
1.86845 20.041201 188.565
1.99949 20.0389 188.543
2.13045 20.0361 188.517
2.26085 20.0287 188.448
2.39116 20.0214 188.37801
2.5218201 20.017599 188.343
2.6523199 20.013 188.299
2.7832799 20.011999 188.28999
2.91395 20.009199 188.26401
3.0443599 20.004999 188.224
3.1743701 19.998501 188.164
3.3048601 19.995501 188.13499
3.4344001 19.9872 188.056
3.5648501 19.9846 188.032
3.6953299 19.9823 188.011
3.82566 19.979401 187.983
3.95595 19.9765 187.95599
4.0865698 19.975401 187.946
4.2168899 19.973 187.923
4.3477302 19.973 187.923
4.47822 19.9715 187.909
4.6096401 19.974199 187.93401
4.7407198 19.975201 187.944
4.8726101 19.9795 187.985
5.0050402 19.9858 188.043
5.1374402 19.9916 188.09801
5.2693 19.995001 188.131
5.4028502 20.004601 188.22099
5.5362101 20.0131 188.3
5.6690998 20.0194 188.36
5.80127 20.023001 188.394
5.9359002 20.0348 188.504
6.0697198 20.043301 188.58501
6.2026901 20.0488 188.636
6.3382802 20.0623 188.763
6.4727101 20.071699 188.85201
6.60607 20.0774 188.905
6.7417498 20.0898 189.022
6.8785 20.1049 189.16499
7.0153399 20.119699 189.304
7.1508298 20.1301 189.40199
7.28757 20.1436 189.52901
7.5629001 20.1742 189.81599
7.7018199 20.191999 189.983
7.8406601 20.2089 190.14301
7.9778199 20.2211 190.257
8.2582302 20.2591 190.61501
8.5405798 20.2994 190.995
8.6810303 20.3169 191.159
8.8214598 20.3339 191.319
8.9607496 20.347799 191.44901
9.1038704 20.369801 191.657
9.2475405 20.392401 191.869
9.39009 20.4119 192.05299
9.5327702 20.4312 192.23399
9.6761599 20.451401 192.424
9.9679604 20.5005 192.886
10.1132 20.5228 193.09599
10.257 20.5415 193.272
10.4053 20.568701 193.528
10.7008 20.6189 194
10.8487 20.6434 194.231
11.1474 20.695801 194.724
11.2973 20.7222 194.972
11.4441 20.7423 195.161
11.5945 20.768299 195.40601
11.7467 20.7969 195.67599
11.8982 20.8237 195.927
12.051 20.851999 196.194
12.2052 20.8822 196.478
12.5152 20.943199 197.052
12.6594 20.9547 197.16
12.8127 20.981001 197.408
12.9712 21.0152 197.729
13.2716 21.055 198.103
13.4294 21.086201 198.397
13.5866 21.1159 198.677
13.8942 21.163099 199.121
14.0473 21.184999 199.326
14.2068 21.2159 199.618
14.3682 21.2491 199.92999
14.5275 21.2785 200.207
14.6894 21.311199 200.51401
14.8477 21.3381 200.767
15.004 21.361601 200.98801
15.17 21.3985 201.336
15.4926 21.457001 201.886
15.656 21.4884 202.18201
15.8192 21.5189 202.468
15.9867 21.554701 202.80499
16.3204 21.622801 203.446
16.4786 21.644501 203.64999
16.6369 21.666 203.853
16.797501 21.690201 204.08
17.115801 21.7335 204.487
-0.101154 20.283899 189.605
0.030820699 20.2712 189.487
0.162659 20.261999 189.401
0.294388 20.253599 189.323
0.42600399 20.245001 189.242
0.68882799 20.225599 189.061
0.82000703 20.214899 188.961
1.08225 20.1992 188.814
1.2132601 20.1919 188.746
1.47506 20.178301 188.619
1.6059999 20.1737 188.576
1.7367899 20.1681 188.52299
1.86712 20.158199 188.431
1.99799 20.155199 188.403
2.1289999 20.1537 188.38901
2.2594299 20.147301 188.32899
2.38958 20.139299 188.254
2.51987 20.1332 188.19701
2.65029 20.1287 188.155
2.78109 20.1273 188.142
2.91188 20.126101 188.131
3.0420699 20.120899 188.082
3.1721301 20.1154 188.03101
3.3026199 20.1129 188.008
3.4323201 20.1059 187.942
3.56284 20.1042 187.92599
3.69326 20.101999 187.90601
3.82394 20.101299 187.899
3.9538701 20.0968 187.85699
4.08461 20.096701 187.856
4.2156 20.0977 187.86501
4.3464599 20.098101 187.869
4.4771099 20.097401 187.86301
4.6086402 20.1007 187.89301
4.7403698 20.104601 187.92999
4.8720102 20.108 187.96201
5.0044398 20.1143 188.021
5.1371999 20.1217 188.089
5.2694402 20.1266 188.136
5.4028101 20.135599 188.21899
5.5360999 20.143801 188.29601
5.6689401 20.15 188.355
5.80162 20.155399 188.405
5.9361801 20.167 188.513
6.0704899 20.1772 188.60899
6.20402 20.1845 188.677
6.33951 20.197701 188.8
6.4746799 20.209299 188.909
6.6090598 20.2181 188.991
6.7459202 20.233999 189.14
6.8832102 20.2505 189.29401
7.02072 20.267099 189.44901
7.1570001 20.279499 189.565
7.2940602 20.293699 189.698
7.43187 20.309401 189.845
7.7100601 20.346001 190.187
7.8485198 20.361799 190.334
7.9868302 20.3766 190.472
8.1267099 20.394899 190.64301
8.4089403 20.435699 191.02499
8.5511198 20.457701 191.23
8.6917896 20.4755 191.397
8.83076 20.488701 191.521
8.9729004 20.5089 191.709
9.1183996 20.535999 191.963
9.2606497 20.555099 192.14101
9.40306 20.5741 192.31799
9.5468502 20.5954 192.51801
9.6936302 20.622601 192.772
9.9859304 20.6721 193.23399
10.13 20.6915 193.416
10.2776 20.7178 193.661
10.4265 20.7458 193.923
10.7198 20.790899 194.345
10.8694 20.8183 194.601
11.1672 20.868401 195.07001
11.318 20.896099 195.32899
11.6196 20.9496 195.828
11.7729 20.9799 196.112
12.0775 21.034901 196.62601
12.2335 21.067801 196.933
12.3887 21.098499 197.22099
12.5359 21.1152 197.377
12.6877 21.139299 197.60201
13.1533 21.224701 198.39999
13.6205 21.307301 199.173
13.9235 21.346701 199.53999
14.0876 21.385 199.899
14.2543 21.4263 200.284
14.4148 21.457701 200.578
14.5754 21.488701 200.867
14.7355 21.518101 201.14301
14.8986 21.5515 201.455
15.0529 21.5718 201.645
15.2155 21.603201 201.939
15.3802 21.6373 202.257
15.5406 21.6646 202.51199
15.7041 21.695601 202.802
16.0371 21.7644 203.44501
16.2006 21.7939 203.72
16.3535 21.8085 203.858
16.5184 21.839001 204.142
16.680901 21.8657 204.392
16.840401 21.8881 204.601
17.003401 21.914499 204.84801
-0.497475 20.4298 189.735
-0.365163 20.417 189.616
-0.233013 20.4041 189.496
0.0307901 20.382999 189.3
0.162515 20.375999 189.23399
0.42563999 20.3594 189.08
0.55700499 20.3498 188.991
0.81937099 20.3307 188.814
0.95047897 20.323601 188.748
1.0813299 20.313299 188.65199
1.34316 20.300699 188.535
1.4739 20.293699 188.47099
1.6047601 20.289301 188.42999
1.73551 20.284401 188.384
1.86578 20.2749 188.29601
1.99637 20.269899 188.24899
2.12748 20.2705 188.255
2.2578399 20.2642 188.19701
2.3880501 20.257401 188.134
2.5182199 20.250999 188.073
2.6482301 20.2439 188.008
2.7789099 20.2425 187.995
2.9098101 20.242701 187.996
3.0399301 20.2377 187.95
3.1700499 20.233101 187.907
3.3006699 20.231899 187.896
3.4304399 20.2258 187.84
3.5609601 20.2244 187.827
3.6912701 20.221901 187.804
3.8223 20.223499 187.81799
3.9521201 20.2188 187.774
4.0831699 20.2204 187.789
4.2143998 20.222799 187.812
4.3452501 20.223301 187.81599
4.4762998 20.2246 187.82899
4.6078501 20.2281 187.86099
4.7400699 20.2342 187.918
4.8716202 20.237301 187.94701
5.0040202 20.243601 188.005
5.13693 20.2516 188.07899
5.2692699 20.257 188.13
5.4028001 20.2666 188.21899
5.5366201 20.276899 188.314
5.6694498 20.2831 188.37199
5.8028598 20.291 188.446
5.9368501 20.3006 188.535
6.0718799 20.3132 188.65199
6.2059798 20.3223 188.73599
6.3418999 20.336901 188.871
6.4784899 20.3529 189.02
6.6139302 20.364799 189.13
6.7509999 20.3811 189.282
6.8892002 20.400101 189.459
7.02776 20.4195 189.63901
7.1635699 20.4303 189.739
7.3013902 20.4464 189.888
7.4397998 20.463499 190.047
7.5797601 20.4842 190.239
7.8568501 20.5161 190.536
7.9956799 20.532 190.683
8.1360798 20.5513 190.86301
8.2767601 20.5707 191.043
8.4198198 20.5954 191.272
8.7017202 20.632299 191.61501
8.8426104 20.649799 191.778
8.9876699 20.676399 192.024
9.1317997 20.7001 192.245
9.2755299 20.7222 192.45
9.4198904 20.7451 192.662
9.5661297 20.7714 192.907
9.7125797 20.7974 193.149
9.8579197 20.8204 193.362
10.0039 20.844101 193.582
10.1508 20.869101 193.814
10.4463 20.920401 194.28999
10.5927 20.9424 194.495
10.7409 20.9674 194.72701
10.8895 20.9925 194.96001
11.1875 21.0425 195.425
11.3402 21.0735 195.713
11.4947 21.107 196.024
11.7965 21.1588 196.505
11.9501 21.188601 196.782
12.1088 21.226601 197.13499
12.4152 21.2813 197.642
13.0389 21.401699 198.761
13.3442 21.447599 199.187
13.6515 21.494801 199.625
13.805 21.5175 199.836
13.9685 21.555099 200.185
14.1387 21.6022 200.62199
14.2995 21.634199 200.92
14.455 21.6576 201.13699
14.6173 21.690701 201.444
14.7778 21.720501 201.722
14.9398 21.7519 202.013
15.2678 21.818701 202.633
15.425 21.8416 202.84599
15.9159 21.9342 203.70599
16.0832 21.969101 204.03
16.403 22.017 204.47501
16.564899 22.042999 204.717
16.7269 22.068701 204.955
-0.62937099 20.555799 189.67799
-0.49694899 20.540199 189.534
-0.364788 20.528 189.42101
-0.23278999 20.516399 189.314
-0.100953 20.507099 189.228
0.0307624 20.496401 189.129
0.293874 20.481501 188.992
0.42528301 20.4739 188.922
0.68769002 20.4552 188.74899
0.81870103 20.445499 188.66
1.08043 20.4277 188.496
1.2113301 20.4223 188.446
1.3422101 20.417601 188.403
1.60357 20.4055 188.28999
1.7343 20.4013 188.252
1.86456 20.392799 188.173
1.99493 20.386299 188.11301
2.1259699 20.3871 188.121
2.2563 20.381399 188.06799
2.38639 20.3743 188.00301
2.51651 20.368099 187.946
2.6465099 20.3617 187.886
2.7769699 20.3592 187.864
2.90763 20.3584 187.856
3.0383799 20.3582 187.854
3.1682501 20.3524 187.8
3.29897 20.352301 187.8
3.42888 20.347401 187.755
3.5593901 20.3463 187.744
3.6897399 20.3444 187.72701
3.8204999 20.3447 187.73
3.9510601 20.344101 187.724
4.0823898 20.3473 187.754
4.2135201 20.3494 187.77299
4.3443899 20.35 187.77901
4.4755301 20.351999 187.797
4.6075401 20.357599 187.84801
4.7398901 20.364401 187.911
4.8717098 20.368601 187.95
5.0041499 20.375099 188.00999
5.1371999 20.383699 188.089
5.2695398 20.389099 188.13901
5.4033198 20.3997 188.237
5.5373702 20.410801 188.339
5.6704702 20.4179 188.40601
5.80443 20.427799 188.49699
5.9390001 20.439301 188.603
6.0742402 20.4526 188.72501
6.2098398 20.466499 188.854
6.3473101 20.485901 189.032
6.6201701 20.5158 189.30901
6.7582102 20.5348 189.48399
6.89711 20.5557 189.67599
7.0352898 20.573601 189.842
7.3095598 20.6017 190.101
7.44871 20.620501 190.27499
7.58954 20.643299 190.485
7.7273502 20.6572 190.61301
8.0066099 20.693001 190.944
8.1476603 20.713699 191.134
8.2897797 20.736401 191.34399
8.4325705 20.76 191.562
8.5750303 20.782 191.765
8.7154703 20.798599 191.918
8.8586998 20.821199 192.127
9.0046396 20.8494 192.38699
9.1485395 20.8722 192.597
9.29284 20.895201 192.80901
9.4371901 20.917601 193.01601
9.7334204 20.9769 193.563
9.8777199 20.9972 193.75
10.0226 21.0182 193.944
10.1717 21.0473 194.213
10.467 21.097401 194.675
10.6136 21.119499 194.879
10.7616 21.1437 195.10201
10.9112 21.1705 195.35001
11.0605 21.195999 195.58501
11.2115 21.224001 195.843
11.3632 21.252899 196.11
11.5181 21.286699 196.422
11.6712 21.3167 196.69901
11.8232 21.343901 196.95
12.3004 21.458799 198.00999
12.767 21.5483 198.836
12.9224 21.5767 199.09801
13.2252 21.618601 199.485
13.5313 21.664 199.903
13.6843 21.685801 200.105
13.8436 21.7173 200.395
14.0119 21.761999 200.808
14.1781 21.8025 201.18201
14.3338 21.826401 201.40199
14.4982 21.862801 201.73801
14.6656 21.903099 202.11
14.8257 21.931801 202.375
14.9858 21.959999 202.63499
15.146 21.987801 202.892
15.3051 22.013399 203.12801
15.4638 22.038099 203.356
15.6323 22.0762 203.707
15.796 22.1068 203.989
16.118299 22.159401 204.47501
16.2777 22.182699 204.69
16.439301 22.2085 204.92799
-0.62867999 20.665199 189.47
-0.364434 20.6399 189.23801
-0.23257799 20.629499 189.142
0.0307371 20.6112 188.974
0.16223399 20.603901 188.907
0.293625 20.5956 188.832
0.42491901 20.587799 188.75999
0.556113 20.58 188.688
0.68719101 20.571699 188.612
0.81806201 20.5609 188.513
0.94895297 20.5534 188.44501
1.07962 20.543501 188.354
1.34127 20.534401 188.27
1.47181 20.527201 188.20399
1.60242 20.5219 188.15601
1.73315 20.5189 188.12801
1.86347 20.511801 188.063
1.99374 20.5051 188.00101
2.1245201 20.5042 187.993
2.25488 20.4995 187.95
2.38486 20.4921 187.883
2.5148001 20.4851 187.81799
2.6449299 20.480301 187.77499
2.7751601 20.4767 187.741
2.9056399 20.475201 187.728
3.0367801 20.4783 187.755
3.1666901 20.473101 187.70799
3.2971799 20.472 187.698
3.42734 20.469 187.67
3.5578499 20.468201 187.66299
3.68856 20.4685 187.666
3.8194001 20.469601 187.67599
3.95028 20.4708 187.687
4.0816398 20.4743 187.71899
4.2130599 20.4779 187.752
4.3443799 20.480801 187.77901
4.4754601 20.482401 187.79401
4.60779 20.489599 187.85899
4.74019 20.496599 187.923
4.87217 20.5014 187.968
5.00458 20.507799 188.026
5.13797 20.5177 188.117
5.2709899 20.525801 188.19099
5.4044399 20.535101 188.276
5.5384302 20.5459 188.37601
5.6723399 20.555901 188.467
5.8073702 20.5695 188.592
5.94278 20.583799 188.72301
6.0785398 20.5986 188.85899
6.21561 20.617201 189.02901
6.3547101 20.6416 189.25301
6.49055 20.6546 189.37199
6.7665401 20.692301 189.718
7.04357 20.7302 190.065
7.1799402 20.741899 190.173
7.4591198 20.782 190.541
7.5998402 20.8041 190.743
7.73844 20.819799 190.88699
8.0183496 20.8566 191.224
8.16045 20.879499 191.43401
8.3043003 20.9062 191.679
8.44662 20.9282 191.881
8.5898504 20.9517 192.09599
8.7330303 20.9744 192.30499
8.8786602 21.0023 192.56
9.0235004 21.027399 192.78999
9.1678104 21.0506 193.00301
9.3131905 21.0755 193.231
9.4603596 21.103701 193.49001
9.6090899 21.1346 193.77299
9.8987398 21.177099 194.16299
10.1934 21.2278 194.627
10.343 21.2568 194.894
10.6373 21.302601 195.314
10.9322 21.3475 195.72501
11.0827 21.375099 195.978
11.7039 21.513901 197.25
12.1867 21.6395 198.40199
12.4882 21.6835 198.80499
12.6484 21.7208 199.14799
12.8031 21.748199 199.399
13.1077 21.7931 199.811
13.2682 21.828199 200.132
13.4218 21.851601 200.34599
13.574 21.872 200.534
13.7309 21.899599 200.787
13.8921 21.933399 201.097
14.0625 21.9809 201.532
14.2207 22.008699 201.787
14.3806 22.038401 202.05901
14.5452 22.074699 202.392
14.7087 22.1087 202.70399
14.8654 22.131901 202.91701
15.0226 22.1555 203.133
15.1851 22.186199 203.41499
15.344 22.211201 203.644
15.5073 22.2421 203.92799
15.8389 22.309299 204.543
15.9999 22.3353 204.78101
16.157101 22.355499 204.967
-0.892349 20.794201 189.442
-0.75997502 20.780701 189.319
-0.49605501 20.7668 189.19299
-0.36414599 20.755301 189.088
-0.2324 20.7453 188.99699
-0.100785 20.7362 188.91299
0.030711999 20.7258 188.819
0.293387 20.7104 188.679
0.42459401 20.703501 188.616
0.55566901 20.694901 188.537
0.68667197 20.687401 188.47
0.81748301 20.6775 188.379
0.948277 20.67 188.31
1.07894 20.6616 188.235
1.20965 20.656099 188.185
1.34044 20.6528 188.15401
1.47093 20.645901 188.091
1.73207 20.636999 188.00999
1.86235 20.6304 187.95
1.99246 20.622801 187.881
2.1231799 20.622101 187.875
2.2534699 20.6175 187.832
2.3834901 20.611099 187.774
2.51336 20.604099 187.711
2.64343 20.599501 187.668
2.77353 20.5954 187.631
2.90399 20.594299 187.621
3.0348799 20.5961 187.638
3.1651299 20.5937 187.616
3.29548 20.5921 187.601
3.4258699 20.590799 187.589
3.55638 20.590401 187.58501
3.6874599 20.5931 187.61
3.8185899 20.5959 187.636
3.9496601 20.598301 187.657
4.0812302 20.603001 187.7
4.21278 20.6073 187.74001
4.3446798 20.613001 187.79201
4.4758 20.614799 187.808
4.7406301 20.629299 187.94
4.8728399 20.635201 187.993
5.0054898 20.6425 188.06
5.13904 20.653099 188.157
5.2729201 20.6644 188.25999
5.5412898 20.687799 188.47301
5.6764498 20.7022 188.604
5.9481702 20.733999 188.894
6.08461 20.7509 189.047
6.2241902 20.7775 189.28999
6.49856 20.812099 189.606
6.6361699 20.8298 189.76601
6.77525 20.8512 189.96201
6.9148998 20.8736 190.166
7.1907301 20.905701 190.45799
7.4714899 20.949499 190.85699
7.7523298 20.9904 191.229
7.8923502 21.008699 191.396
8.0329599 21.028 191.57201
8.1751003 21.0506 191.778
8.31884 21.0765 192.01401
8.4621696 21.100599 192.23399
8.6073999 21.128599 192.489
8.7504196 21.1504 192.688
8.8967505 21.179399 192.952
9.0404902 21.2015 193.153
9.18608 21.2272 193.38699
9.3362398 21.2626 193.71001
9.6290598 21.313801 194.17599
9.7753696 21.3381 194.397
9.9219103 21.3622 194.617
10.0683 21.385401 194.82899
10.3665 21.441 195.33501
10.5133 21.4632 195.537
10.6596 21.4837 195.724
10.8074 21.506599 195.933
10.9554 21.5294 196.14
11.108 21.560499 196.424
11.2646 21.5987 196.771
11.4289 21.650499 197.244
11.5901 21.695299 197.651
11.9079 21.773001 198.36
12.0633 21.8043 198.645
12.3633 21.8458 199.02299
12.5236 21.883801 199.369
12.8321 21.936701 199.851
13.1477 21.9991 200.41901
13.4627 22.058001 200.95599
13.6153 22.0786 201.144
13.775 22.1103 201.43201
13.9404 22.1502 201.79601
14.1015 22.1826 202.091
14.2614 22.212601 202.364
14.5833 22.273899 202.923
14.746 22.306299 203.218
15.0632 22.357201 203.68201
15.2239 22.384899 203.93401
15.5508 22.447001 204.5
15.7148 22.478001 204.782
-1.0237499 20.916401 189.354
-0.89159203 20.9084 189.28101
-0.75940299 20.896799 189.177
-0.62746 20.888599 189.10201
-0.49555501 20.877501 189.002
-0.363805 20.867399 188.911
-0.23220199 20.8592 188.836
-0.100706 20.851299 188.765
0.0306894 20.841999 188.67999
0.16197599 20.833799 188.606
0.29317999 20.827101 188.54601
0.55528301 20.8118 188.407
0.68618101 20.803801 188.33501
0.81692898 20.7946 188.252
0.94769901 20.7885 188.196
1.07828 20.780199 188.121
1.2088701 20.773701 188.062
1.33961 20.771 188.03799
1.6003 20.7565 187.90601
1.73092 20.7542 187.886
1.86114 20.747801 187.828
1.9912 20.740601 187.76199
2.12182 20.739599 187.754
2.2521501 20.7362 187.72301
2.3822501 20.7311 187.67599
2.5121701 20.7251 187.62199
2.6420901 20.719601 187.57201
2.7720799 20.7152 187.533
2.90241 20.7136 187.51801
3.0332301 20.715599 187.536
3.16365 20.714701 187.528
3.29423 20.714899 187.53
3.42486 20.715401 187.534
3.55547 20.7157 187.537
3.68659 20.718901 187.56599
3.81811 20.724001 187.612
3.9497099 20.7292 187.659
4.08149 20.7351 187.71201
4.2132301 20.740299 187.75999
4.3449798 20.745199 187.80499
4.4763498 20.748199 187.83099
4.6094799 20.7589 187.92799
4.74191 20.7659 187.991
4.87467 20.773899 188.064
5.00773 20.782801 188.144
5.1412401 20.7931 188.237
5.2762399 20.808701 188.379
5.4106798 20.821301 188.493
5.5465698 20.8389 188.65199
5.6826301 20.8563 188.80901
5.8191299 20.874399 188.974
6.0925398 20.9098 189.29401
6.2333202 20.940001 189.56799
6.3710599 20.959 189.74001
6.6464701 20.994499 190.061
6.9259601 21.0396 190.47
7.2028098 21.0737 190.778
7.48629 21.124201 191.235
7.76649 21.1621 191.57899
7.9061799 21.1791 191.73199
8.0485096 21.2024 191.94299
8.19172 21.227301 192.168
8.4802704 21.2799 192.645
8.6248903 21.305901 192.88
8.7701302 21.3326 193.121
8.9142303 21.3557 193.33099
9.20714 21.4109 193.83099
9.35567 21.442101 194.11301
9.5025702 21.4687 194.353
9.6483202 21.491899 194.564
9.7968302 21.520599 194.82401
9.9424801 21.542299 195.021
10.0896 21.5667 195.241
10.2386 21.5942 195.49001
10.3859 21.617599 195.702
10.5342 21.6422 195.925
10.683 21.667601 196.15401
10.8316 21.6917 196.37199
11.3055 21.814699 197.48599
11.4675 21.861401 197.909
11.632 21.9118 198.366
11.7866 21.942499 198.64301
12.0935 21.997601 199.142
12.2475 22.025299 199.392
12.7122 22.1092 200.15199
12.8649 22.132299 200.36099
13.0265 22.169901 200.702
13.1834 22.198799 200.964
13.3431 22.2318 201.26199
13.6516 22.278 201.681
13.8167 22.3179 202.04201
13.9835 22.3596 202.42
14.1459 22.3937 202.728
14.3022 22.4174 202.94299
14.4641 22.449499 203.233
14.6227 22.4758 203.47099
14.7836 22.5051 203.73599
14.9438 22.532801 203.987
15.1033 22.558901 204.224
15.2679 22.5921 204.524
15.4303 22.6215 204.78999
-1.15536 21.044399 189.319
-0.89067698 21.0186 189.08701
-0.75866997 21.008301 188.994
-0.49510199 20.99 188.82899
-0.36346599 20.9795 188.735
-0.100632 20.9673 188.62601
0.030667 20.958099 188.543
0.161843 20.948 188.451
0.29295799 20.9426 188.403
0.42398599 20.936199 188.34599
0.55491298 20.929001 188.28101
0.81636202 20.9112 188.121
0.94713598 20.907101 188.084
1.0776401 20.8988 188.009
1.33868 20.887501 187.907
1.46903 20.880899 187.84801
1.5993299 20.874701 187.79201
1.72979 20.8715 187.763
1.86005 20.8664 187.717
1.99006 20.859301 187.65401
2.1205499 20.857901 187.642
2.25091 20.8554 187.619
2.38099 20.8508 187.578
2.51109 20.8468 187.541
2.6408801 20.840799 187.487
2.77087 20.8368 187.451
2.9009399 20.8337 187.424
3.0320401 20.837999 187.463
3.16255 20.8381 187.463
3.2932701 20.8395 187.47501
3.42415 20.8417 187.496
3.5552101 20.844801 187.524
3.68629 20.8479 187.55099
3.8182199 20.855301 187.618
3.95011 20.862101 187.679
4.08216 20.8692 187.743
4.21415 20.875601 187.80099
4.4776301 20.885 187.88499
4.6110001 20.896601 187.99001
4.7439799 20.905899 188.073
4.8776302 20.917601 188.17799
5.14533 20.9408 188.38699
5.2813001 20.959999 188.55901
5.41713 20.9776 188.718
5.5534401 20.9963 188.886
5.8264399 21.0324 189.211
5.9626002 21.0481 189.35201
6.1022301 21.0751 189.595
6.37919 21.118099 189.98199
6.5169201 21.135799 190.142
6.6575899 21.162201 190.379
6.9375501 21.2078 190.789
7.2158098 21.2449 191.123
7.5000801 21.296499 191.58701
7.6385102 21.3106 191.714
7.7795 21.331301 191.89999
7.92347 21.3592 192.151
8.0692501 21.3911 192.438
8.2144003 21.4202 192.7
8.3547497 21.436199 192.843
8.4981699 21.459299 193.052
8.6435604 21.486601 193.297
8.9331799 21.5361 193.742
9.07903 21.562099 193.97701
9.2245398 21.586599 194.19701
9.3753204 21.622601 194.52
9.5260897 21.657499 194.834
9.81534 21.697201 195.192
10.1123 21.7514 195.679
10.2589 21.7736 195.879
10.5584 21.8288 196.375
10.7095 21.858101 196.63901
11.0161 21.9235 197.228
11.3464 22.031601 198.2
11.5048 22.070801 198.552
11.9709 22.1661 199.41
12.1259 22.195801 199.677
12.4378 22.256399 200.222
12.5927 22.2838 200.46899
12.9003 22.333099 200.91299
13.0568 22.3617 201.16901
13.2182 22.3979 201.495
13.3722 22.420799 201.701
13.5288 22.447599 201.94299
13.6961 22.491501 202.33701
13.8651 22.5373 202.74899
14.0264 22.5697 203.041
14.1822 22.5928 203.248
14.3377 22.614799 203.44701
14.4968 22.6422 203.69299
14.6579 22.6719 203.96001
14.8213 22.7047 204.256
14.9811 22.7314 204.496
15.1437 22.761801 204.769
-1.28657 21.166599 189.233
-1.02196 21.143101 189.02299
-0.75797898 21.120701 188.82201
-0.62637299 21.115299 188.774
-0.494771 21.107401 188.703
-0.363215 21.0963 188.604
-0.231805 21.0861 188.513
-0.100551 21.0818 188.47501
0.161742 21.066099 188.334
0.29272401 21.056999 188.25301
0.42370099 21.0532 188.21899
0.68526399 21.038 188.08299
0.81590497 21.0305 188.01601
0.94659698 21.0261 187.97701
1.2074 21.010099 187.834
1.33786 21.0054 187.791
1.46823 21.000299 187.746
1.7289 20.9914 187.666
1.8590699 20.986099 187.619
1.98903 20.9792 187.55701
2.1194301 20.977501 187.54201
2.2497399 20.9753 187.522
2.3796301 20.9695 187.47
2.5099001 20.967501 187.453
2.6398101 20.962799 187.411
2.7697999 20.959299 187.379
2.89973 20.9555 187.345
3.0312099 20.962799 187.411
3.16168 20.9629 187.411
3.2927001 20.9664 187.44299
3.42364 20.969101 187.467
3.55528 20.9758 187.52699
3.68641 20.979099 187.55701
3.81867 20.988501 187.64
3.95085 20.9967 187.714
4.2151399 21.0114 187.845
4.3471498 21.017401 187.89799
4.4802399 21.028099 187.994
4.6139698 21.0411 188.11099
4.7470002 21.050301 188.19299
4.8819599 21.0674 188.345
5.0163898 21.081301 188.47
5.1513801 21.0968 188.60899
5.2878098 21.1173 188.79201
5.4242601 21.1369 188.967
5.56072 21.1555 189.134
5.6975398 21.1747 189.30499
5.8352299 21.1961 189.49699
5.97294 21.2167 189.681
6.11233 21.242201 189.909
6.2505298 21.2626 190.091
6.38908 21.2833 190.276
6.6694498 21.3328 190.718
6.9492102 21.376499 191.10899
7.22925 21.4179 191.479
7.5134501 21.4681 191.92799
7.6545 21.489 192.11501
7.94383 21.5483 192.645
8.0902901 21.5812 192.94
8.2327003 21.602501 193.129
8.3745899 21.6217 193.30099
8.5207195 21.6511 193.564
8.6664495 21.678499 193.80901
8.8101196 21.7001 194.002
8.9547901 21.7234 194.211
9.1022396 21.752701 194.472
9.2504797 21.783001 194.743
9.4021902 21.8204 195.078
9.5496902 21.8472 195.317
9.69203 21.8615 195.446
9.8383598 21.884399 195.64999
9.9903297 21.919001 195.959
10.2889 21.9739 196.45
10.4393 22.0028 196.70799
11.2271 22.2066 198.53
11.6935 22.305401 199.41299
11.8488 22.336399 199.69099
12.1561 22.3904 200.173
12.3108 22.4184 200.424
12.626 22.4827 200.998
12.7796 22.5068 201.215
12.9351 22.533701 201.455
13.2536 22.598499 202.034
13.4099 22.6248 202.269
13.9017 22.7384 203.285
14.0566 22.760099 203.479
14.2124 22.782801 203.681
14.3706 22.808701 203.914
14.693 22.8687 204.45
14.8548 22.898701 204.718
-1.68355 21.3209 189.43201
-1.55059 21.306101 189.30099
-1.41784 21.2915 189.17101
-1.28545 21.280001 189.069
-1.15324 21.268999 188.97099
-0.88920498 21.246901 188.77499
-0.757411 21.2363 188.67999
-0.62589198 21.230499 188.629
-0.49441001 21.2234 188.56599
-0.36297801 21.2139 188.481
-0.231655 21.203699 188.39101
0.030621899 21.189501 188.265
0.16162799 21.182301 188.201
0.55418098 21.163401 188.033
0.68490899 21.1581 187.98599
0.81556398 21.152599 187.937
1.07644 21.1371 187.799
1.20684 21.1311 187.746
1.33725 21.1266 187.70599
1.59773 21.1152 187.605
1.72815 21.113001 187.58501
1.85822 21.1071 187.533
1.98813 21.1003 187.472
2.11834 21.0973 187.446
2.2486801 21.0959 187.433
2.3787501 21.0923 187.401
2.50875 21.0884 187.367
2.6387899 21.085199 187.338
2.7690899 21.0844 187.33099
2.8991101 21.081499 187.306
3.0307 21.0898 187.379
3.1614499 21.0919 187.39799
3.29263 21.0965 187.438
3.42377 21.100599 187.47501
3.5555301 21.107901 187.53999
3.68697 21.113001 187.58501
3.8196399 21.1245 187.688
3.9523499 21.1355 187.785
4.08496 21.145201 187.87199
4.2171698 21.152399 187.935
4.34974 21.160801 188.00999
4.4838099 21.1759 188.144
4.6184101 21.192499 188.29201
4.7519398 21.2034 188.38901
5.0234299 21.2423 188.735
5.1596899 21.2624 188.91299
5.29526 21.2787 189.058
5.4321899 21.299601 189.243
5.5685301 21.3172 189.399
5.7066498 21.340599 189.608
5.98349 21.386499 190.01601
6.1223502 21.409599 190.22
6.2606502 21.429701 190.399
6.4007702 21.455099 190.62399
6.68225 21.5068 191.084
6.9629302 21.552099 191.48599
7.10361 21.574499 191.686
7.2458901 21.6008 191.92
7.3895402 21.630199 192.181
7.5309501 21.652201 192.37601
7.6719699 21.672199 192.554
7.81709 21.702999 192.827
7.9623399 21.733 193.09399
8.1068697 21.760099 193.33501
8.2510004 21.785299 193.55901
8.3979902 21.817101 193.841
8.5450296 21.848101 194.116
8.6882601 21.868401 194.297
8.83148 21.888201 194.47301
8.97892 21.917601 194.73399
9.1290598 21.9527 195.045
9.27495 21.976601 195.258
9.4218702 22.0023 195.48599
9.7131796 22.0457 195.87199
9.8653603 22.0811 196.187
10.1667 22.142599 196.733
10.3186 22.1747 197.01801
11.4133 22.439301 199.369
11.5672 22.468599 199.63
11.8792 22.533199 200.203
12.0324 22.559099 200.43401
12.3495 22.628799 201.05299
12.5036 22.6544 201.28
12.655 22.6747 201.461
12.8104 22.701599 201.69901
12.9705 22.736099 202.006
13.1301 22.7689 202.297
13.2858 22.7945 202.52499
13.442 22.820299 202.754
13.606 22.858601 203.095
13.7718 22.8992 203.455
13.9262 22.9202 203.642
14.0804 22.9405 203.82201
14.2413 22.971201 204.095
14.4024 23.0016 204.366
14.5666 23.0362 204.672
-1.68198 21.432899 189.256
-1.54915 21.417999 189.125
-1.41681 21.407801 189.034
-1.28448 21.395399 188.92599
-1.02029 21.3715 188.714
-0.88851303 21.3617 188.62801
-0.62537497 21.344299 188.474
-0.494021 21.3379 188.41701
-0.36270401 21.3291 188.339
-0.23150399 21.320999 188.26801
-0.100415 21.315599 188.22
0.030602399 21.3071 188.145
0.292357 21.2924 188.01601
0.423204 21.2904 187.998
0.55388898 21.2831 187.93401
0.68449801 21.276199 187.873
0.94566 21.266899 187.791
1.07585 21.2563 187.69701
1.2061599 21.250099 187.642
1.46714 21.246 187.606
1.59706 21.237 187.526
1.72747 21.2353 187.511
1.85743 21.228701 187.453
1.98722 21.221201 187.38699
2.1175001 21.2195 187.37199
2.24753 21.215599 187.33701
2.3782301 21.218201 187.36
2.5081401 21.2138 187.321
2.6380899 21.209999 187.28799
2.7688999 21.2134 187.31799
2.8994999 21.214899 187.33099
3.03057 21.2194 187.371
3.1621101 21.226801 187.437
3.29286 21.2286 187.452
3.42451 21.235701 187.515
3.5560501 21.241699 187.56799
3.6881199 21.250299 187.644
3.8216 21.266199 187.784
3.9544001 21.2773 187.883
4.08746 21.289101 187.987
4.2206402 21.3008 188.09
4.3541002 21.313101 188.19901
4.4883399 21.328501 188.334
4.62363 21.347799 188.504
4.7586298 21.3647 188.65401
4.89433 21.383801 188.823
5.1670899 21.4247 189.18401
5.44032 21.463499 189.526
5.7179499 21.5152 189.983
5.9953399 21.561501 190.392
6.13307 21.5798 190.55299
6.27318 21.605499 190.78
6.41434 21.6336 191.028
6.5560298 21.662399 191.282
6.69628 21.685301 191.485
6.8366799 21.7078 191.68401
6.9765801 21.728001 191.862
7.1186399 21.753901 192.091
7.2636499 21.7878 192.39
7.4081202 21.8188 192.664
7.5490398 21.838499 192.838
7.6921701 21.863701 193.061
7.83884 21.898001 193.36301
7.9834499 21.925501 193.606
8.1285696 21.9534 193.85201
8.2740803 21.981501 194.10001
8.4190702 22.0072 194.328
8.5650797 22.034901 194.57201
8.7086802 22.0555 194.754
8.8531504 22.0777 194.95
9.1516104 22.143101 195.52699
9.2969398 22.165001 195.72099
9.4432898 22.188801 195.931
9.59128 22.215599 196.168
9.8945704 22.283501 196.76801
10.0444 22.312099 197.02
11.1345 22.5758 199.34801
11.2872 22.6035 199.593
11.5985 22.6689 200.17
11.7528 22.697701 200.425
12.0588 22.748501 200.873
12.2192 22.787001 201.213
12.3812 22.827299 201.569
12.6845 22.868099 201.92999
12.8429 22.9 202.211
13.0032 22.9345 202.51601
13.162 22.9655 202.78999
13.3167 22.9888 202.995
13.4746 23.017099 203.245
13.638 23.054199 203.573
13.7966 23.0825 203.82201
13.9506 23.1026 204
14.1103 23.131599 204.256
14.273 23.1647 204.549
14.4374 23.200199 204.862
-1.81308 21.556999 189.189
-1.68045 21.545099 189.084
-1.5479 21.532301 188.972
-1.41573 21.523001 188.89
-1.15133 21.4967 188.659
-1.01955 21.487301 188.577
-0.88793898 21.4792 188.506
-0.75635302 21.469101 188.41701
-0.625 21.462601 188.36
-0.49372801 21.4564 188.306
-0.36249 21.447599 188.228
-0.231374 21.4401 188.16299
-0.100354 21.433599 188.105
0.161439 21.419399 187.981
0.292184 21.410801 187.905
0.42292601 21.407301 187.875
0.55361199 21.403299 187.84
0.68413001 21.395599 187.772
0.81462699 21.389799 187.72099
0.94518799 21.3871 187.69701
1.07535 21.3771 187.61
1.2056299 21.371201 187.558
1.33601 21.368299 187.532
1.4665101 21.367599 187.526
1.59648 21.3598 187.45799
1.72674 21.356899 187.43201
1.8566999 21.3508 187.379
1.98666 21.345699 187.334
2.1168699 21.3437 187.31599
2.2467899 21.3391 187.276
2.3773999 21.3412 187.295
2.50789 21.3421 187.302
2.6382999 21.3423 187.304
2.7692599 21.3466 187.342
2.90011 21.3498 187.37
3.0311999 21.354401 187.41
3.16294 21.363001 187.48599
3.2939501 21.366199 187.51401
3.4260099 21.3757 187.597
3.5576999 21.382299 187.655
3.6902299 21.3932 187.75101
3.82409 21.4109 187.90601
3.9572401 21.4235 188.017
4.0911698 21.439501 188.157
4.22545 21.4562 188.304
4.3593502 21.4701 188.42599
4.4946098 21.489599 188.597
4.6302299 21.509701 188.774
4.7662902 21.530701 188.95799
4.9019499 21.5488 189.116
5.17555 21.591801 189.494
5.4499402 21.6336 189.86099
5.7283401 21.6868 190.328
5.8674002 21.7111 190.541
6.1451302 21.755199 190.92799
6.4260001 21.8062 191.37601
6.7080998 21.857201 191.823
6.8492498 21.8815 192.037
7.13901 21.950399 192.64101
7.2849998 21.9862 192.95599
7.4274998 22.0105 193.168
7.7131801 22.0583 193.588
7.8595099 22.090799 193.873
8.0061502 22.122999 194.15601
8.1497698 22.146 194.358
8.2940502 22.17 194.569
8.4378796 22.192101 194.76199
8.5844297 22.220501 195.011
8.7286196 22.241899 195.2
8.8748398 22.2679 195.427
9.0234203 22.2988 195.69901
9.1719904 22.328899 195.963
9.3212605 22.359699 196.233
9.4696999 22.387699 196.479
9.7677097 22.443899 196.972
9.9183798 22.4746 197.241
10.0682 22.502399 197.48599
10.6988 22.673401 198.987
10.8533 22.7069 199.28
11.3119 22.7924 200.03101
11.4712 22.832199 200.38
11.7826 22.895201 200.933
11.9349 22.9191 201.142
12.0885 22.944901 201.369
12.2507 22.9862 201.731
12.4091 23.0196 202.024
12.5605 23.0392 202.196
12.7137 23.061701 202.394
12.8747 23.0979 202.71201
13.0347 23.131399 203.006
13.1895 23.155001 203.213
13.3452 23.1798 203.42999
13.5012 23.2045 203.647
13.6644 23.240999 203.967
13.8254 23.2729 204.24699
14.1439 23.329201 204.741
-1.94472 21.688 189.18201
-1.8118 21.673401 189.05499
-1.67916 21.660101 188.939
-1.5467 21.6472 188.826
-1.28256 21.626301 188.64301
-1.1506701 21.6157 188.55099
-1.01895 21.605801 188.465
-0.88748401 21.5994 188.409
-0.75595897 21.589001 188.319
-0.493402 21.573299 188.181
-0.36228099 21.5662 188.12
-0.23126601 21.5611 188.075
0.030570701 21.5469 187.951
0.161346 21.538 187.873
0.29204199 21.5312 187.814
0.55333799 21.5235 187.74699
0.68379402 21.5158 187.67999
0.81423801 21.5103 187.631
0.94475597 21.5079 187.61099
1.07495 21.499701 187.539
1.2052799 21.495701 187.505
1.33555 21.491501 187.468
1.46591 21.4893 187.448
1.5960799 21.485001 187.411
1.7262 21.4807 187.37399
1.85613 21.474701 187.32201
1.98641 21.4734 187.31
2.11656 21.471001 187.289
2.24666 21.4683 187.265
2.37708 21.4688 187.27
2.5078199 21.471901 187.297
2.6387401 21.476299 187.33501
2.7698801 21.481899 187.384
2.9010799 21.487499 187.433
3.03234 21.493 187.481
3.1642201 21.5023 187.562
3.2957599 21.5086 187.617
3.4283199 21.5208 187.72301
3.5603099 21.528799 187.793
3.69381 21.544901 187.933
3.8278899 21.5632 188.093
3.9621 21.580999 188.24899
4.0963101 21.5977 188.394
4.2311702 21.6166 188.55901
4.3664298 21.6364 188.73199
4.6380601 21.677799 189.093
4.77491 21.7015 189.3
4.9112401 21.7216 189.47501
5.1859798 21.7675 189.875
5.32303 21.787399 190.049
5.4611001 21.8104 190.25
5.5993199 21.833 190.44701
5.7388902 21.8596 190.679
5.8774199 21.881201 190.867
6.0155902 21.9004 191.035
6.1552501 21.9242 191.242
6.43858 21.9825 191.75
6.5798802 22.0086 191.978
7.0152001 22.117001 192.924
7.1614599 22.153999 193.246
7.3046098 22.180201 193.47501
7.44627 22.201 193.65601
7.5884099 22.222401 193.843
7.7336602 22.2521 194.10201
7.8804002 22.284901 194.38901
8.0251904 22.311199 194.618
8.31283 22.3561 195.009
8.6032896 22.405399 195.44
8.7499199 22.432501 195.67599
8.8976202 22.4615 195.929
9.04498 22.4888 196.16701
9.19561 22.523199 196.467
9.4939499 22.582199 196.98199
9.7924204 22.638201 197.47
9.9481497 22.6798 197.83299
10.5773 22.849001 199.30901
10.7283 22.874901 199.535
11.0331 22.931 200.024
11.501 23.031401 200.89999
11.6573 23.0641 201.186
11.9627 23.1129 201.61099
12.1214 23.148001 201.91701
12.2809 23.183599 202.228
12.4344 23.207399 202.435
12.5873 23.229601 202.629
12.7452 23.260201 202.896
12.9056 23.2948 203.198
13.0641 23.325199 203.463
13.218 23.346901 203.65199
13.3728 23.3696 203.85001
13.5318 23.3992 204.108
13.696 23.437 204.438
13.854 23.4636 204.67
14.0132 23.491699 204.91499
-2.34185 21.8388 189.347
-2.07584 21.8137 189.129
-1.94313 21.801901 189.02699
-1.8105299 21.7899 188.923
-1.6781 21.778 188.82001
-1.5457799 21.765699 188.713
-1.41379 21.756201 188.63
-1.28181 21.745001 188.533
-1.15002 21.7348 188.44501
-1.01845 21.7265 188.373
-0.88697898 21.7183 188.302
-0.62427503 21.6998 188.142
-0.49306601 21.6896 188.05299
-0.362084 21.685499 188.017
-0.100255 21.6742 187.92
0.030554499 21.6663 187.851
0.161264 21.6577 187.77699
0.29188901 21.6506 187.715
0.42247701 21.646 187.675
0.55307901 21.6441 187.659
0.68354797 21.6387 187.612
0.81385601 21.6308 187.543
1.0745 21.621201 187.46001
1.20489 21.6192 187.44299
1.3351099 21.615 187.40601
1.4654 21.6124 187.384
1.59584 21.612301 187.383
1.72588 21.607201 187.339
1.85587 21.602301 187.29601
1.98632 21.6029 187.30099
2.11658 21.601601 187.28999
2.2467899 21.599899 187.276
2.37746 21.602699 187.3
2.50857 21.608801 187.353
2.6398101 21.615499 187.411
2.77068 21.6187 187.438
2.9021699 21.6262 187.50301
3.1666 21.6492 187.703
3.2985799 21.657801 187.77699
3.4318299 21.6738 187.916
3.6982701 21.702 188.16
3.83287 21.722401 188.338
3.96715 21.739799 188.48801
4.10255 21.761999 188.681
4.23839 21.785101 188.881
4.3738699 21.804899 189.05299
4.5100598 21.827101 189.245
4.64749 21.853901 189.47701
4.7838702 21.8743 189.655
4.92063 21.895399 189.83701
5.0575099 21.9158 190.015
5.1950102 21.937901 190.20599
5.3323998 21.958401 190.384
5.4691 21.9751 190.52901
5.60923 22.004499 190.783
5.88868 22.056299 191.23199
6.1663399 22.0972 191.58701
