# .PCD v0.7 - Point Cloud Data file format
VERSION 0.7
FIELDS x y z
SIZE 4 4 4
TYPE F F F
COUNT 1 1 1
WIDTH 1821
HEIGHT 1
VIEWPOINT 0 0 0 1 0 0 0
POINTS 1821
DATA ascii
-4.5275502 9.7591105 198.487
-4.3870902 9.7540398 198.384
-4.2463999 9.7481098 198.263
-3.9656 9.7364101 198.02499
-3.82635 9.7328796 197.953
-3.68785 9.7310495 197.916
-3.5476601 9.7244396 197.78101
-3.4082501 9.7195101 197.681
-3.27 9.7176304 197.64301
-3.1308401 9.71276 197.54401
-2.9921401 9.7089396 197.466
-2.85408 9.7069197 197.425
-2.71544 9.70261 197.338
-2.43872 9.6948204 197.179
-2.30039 9.69032 197.08701
-2.1619201 9.68466 196.972
-2.02355 9.6786804 196.851
-1.8859 9.6755199 196.786
-1.74777 9.66922 196.658
-1.60974 9.6624699 196.521
-1.47192 9.65588 196.38699
-1.33398 9.6470203 196.207
-1.19655 9.6402102 196.06799
-1.0594 9.6342497 195.94701
-0.922131 9.6252699 195.765
-0.78556901 9.6218395 195.69501
-0.64885002 9.6146402 195.548
-0.51232803 9.6073103 195.399
-0.376048 9.6008701 195.26801
-0.239949 9.5943804 195.136
-0.104023 9.5868301 194.983
0.031708099 9.5848904 194.94299
0.16735201 9.58113 194.867
0.30280799 9.57477 194.737
0.438072 9.5681496 194.603
0.57332999 9.5645704 194.53
0.70839101 9.5596905 194.431
0.843247 9.5540705 194.31599
0.97832698 9.5521698 194.278
1.11315 9.5485601 194.20399
1.2481101 9.5467396 194.16701
1.38245 9.5410099 194.05099
1.5168999 9.5369997 193.96899
1.6510201 9.5317297 193.862
1.78574 9.5304499 193.836
1.9203399 9.52878 193.802
2.0546501 9.5259705 193.745
2.1891601 9.5243797 193.713
2.3231201 9.5207396 193.638
2.4568801 9.5166903 193.556
2.5912299 9.5152502 193.52699
2.72471 9.5108995 193.438
2.8591101 9.5100298 193.42101
2.9932001 9.5082502 193.384
3.1266501 9.5046902 193.312
3.2603099 9.5019999 193.257
3.3940699 9.4998302 193.213
3.5279701 9.49821 193.17999
3.6621699 9.4974804 193.16499
3.7964201 9.4969101 193.15401
3.9302499 9.4953899 193.123
4.0655699 9.4974403 193.16499
4.2006302 9.4987602 193.19099
4.3355899 9.4997902 193.213
4.4693398 9.4981899 193.17999
4.6041398 9.4988499 193.19299
4.7400298 9.5016499 193.25
4.8748202 9.50214 193.25999
5.0099702 9.5033102 193.284
5.1452198 9.50459 193.31
5.2814202 9.5075197 193.37
5.4173398 9.5098104 193.416
5.55439 9.5139303 193.5
5.6901898 9.5157604 193.537
5.82654 9.5184097 193.591
5.9609399 9.5178204 193.57899
6.0961599 9.5185404 193.59399
6.2326798 9.5212002 193.64799
6.5062499 9.5269899 193.76601
6.6409202 9.52668 193.759
6.9106302 9.5265903 193.758
7.0483799 9.5304699 193.836
7.1834798 9.5306797 193.841
7.3206 9.5335197 193.89799
7.45679 9.5350599 193.92999
7.5900898 9.5329199 193.886
7.7291098 9.5379105 193.98801
7.8664598 9.5407104 194.045
8.0017099 9.5409002 194.049
8.13939 9.5439501 194.11099
8.2771997 9.54704 194.173
8.4141703 9.5490799 194.215
8.5549603 9.5553102 194.342
8.6942797 9.5597496 194.43201
8.83599 9.5666199 194.57201
8.9752598 9.5706997 194.655
9.1164503 9.5766602 194.776
9.2573204 9.5821304 194.88699
9.3979702 9.5872097 194.99001
9.6815205 9.5991697 195.23399
9.8223801 9.6040096 195.332
9.9656096 9.6110001 195.474
10.1098 9.6187601 195.632
10.2547 9.6269302 195.798
10.4019 9.6369495 196.002
10.5518 9.6492796 196.25301
10.6985 9.6584101 196.439
10.8477 9.6694698 196.664
10.9964 9.6798496 196.875
11.1444 9.6894102 197.069
11.2918 9.6981602 197.24699
11.4367 9.7045803 197.377
11.5777 9.7076197 197.439
11.7194 9.7110901 197.50999
11.8633 9.7163801 197.618
12.0075 9.7217197 197.726
12.1528 9.72785 197.851
12.2952 9.7315702 197.92599
12.4388 9.7361202 198.019
12.5819 9.7401505 198.101
12.7264 9.7452297 198.20399
12.8709 9.7501602 198.304
13.0188 9.7575703 198.455
13.3131 9.7707195 198.72301
13.4601 9.77703 198.851
13.6131 9.7875099 199.064
13.7672 9.7985802 199.289
13.9168 9.8062401 199.44501
14.0705 9.8165703 199.655
14.236 9.8348904 200.028
14.405 9.8552103 200.44099
-6.2330098 9.9731102 200.006
-6.09058 9.9678802 199.901
-5.9468002 9.9601402 199.746
-5.80268 9.9514599 199.57201
-5.6608 9.9462795 199.468
-5.3765702 9.9342403 199.226
-5.2352901 9.9293404 199.12801
-5.0931101 9.92241 198.989
-4.9513001 9.9158401 198.85699
-4.8105798 9.9111099 198.76199
-4.6704998 9.9074898 198.69
-4.5304298 9.9036703 198.61301
-4.2488799 9.8919601 198.37801
-4.10886 9.8873596 198.286
-3.8288901 9.8773203 198.08501
-3.6898701 9.8743 198.024
-3.4102001 9.8628597 197.795
-3.27144 9.8596497 197.73
-3.1323299 9.8550396 197.638
-2.9934599 9.8508101 197.55299
-2.85551 9.8493404 197.524
-2.71682 9.8450603 197.438
-2.57845 9.8415403 197.367
-2.4396901 9.83605 197.257
-2.30127 9.8313599 197.16299
-2.0241001 9.8184605 196.90401
-1.88621 9.8142099 196.819
-1.74793 9.8071203 196.677
-1.60993 9.8005199 196.545
-1.33395 9.7834101 196.201
-1.1964999 9.77635 196.06
-1.05932 9.77001 195.933
-0.92201698 9.7604303 195.741
-0.78540701 9.7561398 195.65401
-0.64879203 9.7499704 195.53101
-0.51223499 9.7416496 195.364
-0.37597999 9.7351103 195.233
-0.23992801 9.7294502 195.119
-0.104012 9.7215796 194.961
0.0317045 9.7195702 194.92101
0.167354 9.7169704 194.869
0.30279401 9.7099504 194.728
0.438054 9.70331 194.595
0.57327002 9.6990604 194.50999
0.708305 9.6939402 194.407
0.84312302 9.6879797 194.28799
0.97815198 9.6857595 194.243
1.11298 9.6823101 194.174
1.2479399 9.6806898 194.14101
1.38225 9.6747799 194.02299
1.51676 9.6711798 193.951
1.65097 9.66646 193.856
1.78553 9.6643295 193.813
1.92004 9.6622496 193.772
2.0545199 9.6603003 193.73199
2.18892 9.6582699 193.692
2.3227999 9.6542702 193.61099
2.45667 9.6506996 193.53999
2.7242999 9.6441698 193.409
2.85867 9.64326 193.39101
2.99278 9.6415901 193.35699
3.1262701 9.6381397 193.28799
3.2599699 9.6356201 193.23801
3.3938799 9.6338701 193.202
3.5284901 9.6341696 193.209
3.6618199 9.6310797 193.147
3.7964301 9.6314697 193.15401
3.93046 9.6303997 193.133
4.0665302 9.6342497 193.21001
4.2010102 9.6342001 193.209
4.33566 9.6345301 193.216
4.4690399 9.6321001 193.16701
4.6031299 9.6312904 193.151
4.7392101 9.6345701 193.217
4.8741398 9.6354198 193.23399
5.0097899 9.6375999 193.27699
5.14499 9.6388102 193.30099
5.2811198 9.6416597 193.35899
5.4173398 9.6445398 193.416
5.5542402 9.6484499 193.495
5.68957 9.6495104 193.51601
5.8258901 9.6521597 193.569
5.9598498 9.6508904 193.54401
6.0953202 9.65205 193.567
6.2318301 9.6547804 193.62199
6.3675799 9.65623 193.651
6.63977 9.6599598 193.726
6.7739601 9.6590099 193.707
6.90939 9.6598196 193.72301
7.3192201 9.6667604 193.862
7.4549298 9.6677303 193.882
7.72684 9.6701899 193.931
7.8639898 9.6728296 193.98399
7.9997902 9.6737404 194.002
8.1374197 9.6768103 194.064
8.2749205 9.6796198 194.12
8.4115105 9.6812897 194.15401
8.5519304 9.6872396 194.27299
8.69102 9.6915302 194.35899
8.8320503 9.6978302 194.485
8.97153 9.7022495 194.57401
9.2538795 9.7142601 194.815
9.3948002 9.7197399 194.925
9.5374203 9.7268105 195.06599
9.6793299 9.7329502 195.189
9.8200102 9.73771 195.285
9.9619598 9.7435799 195.403
10.1065 9.7518101 195.56799
10.2502 9.7589903 195.71201
10.5465 9.7810698 196.155
10.695 9.7919598 196.373
10.9936 9.8145304 196.826
11.1414 9.8240004 197.015
11.2896 9.8336496 197.209
11.4355 9.8409996 197.356
11.5769 9.84445 197.425
11.7185 9.8479605 197.496
11.8617 9.8526497 197.59
12.0068 9.8589001 197.715
12.1523 9.8652401 197.843
12.2944 9.8688097 197.914
12.4378 9.87323 198.00301
12.5801 9.8767405 198.073
12.7257 9.88274 198.19299
12.8701 9.8877001 198.293
13.0173 9.89464 198.43201
13.1629 9.9002104 198.54401
13.3097 9.9066 198.672
13.4555 9.9121799 198.784
13.7634 9.9345999 199.233
13.9137 9.9429502 199.401
14.066 9.9524698 199.592
14.229 9.9693203 199.92999
14.397 9.9892797 200.33
-6.0939298 10.1127 200.011
-5.9503002 10.1052 199.86301
-5.6643901 10.0916 199.59399
-5.5218902 10.0851 199.466
-5.3793201 10.0782 199.328
-5.2379899 10.0732 199.23
-5.0961499 10.067 199.108
-4.95402 10.0599 198.966
-4.8134499 10.0556 198.881
-4.6729698 10.0512 198.795
-4.53301 10.0477 198.726
-4.3915401 10.0406 198.58501
-4.1110201 10.0307 198.39
-3.97032 10.0242 198.261
-3.69186 10.0176 198.131
-3.5515499 10.0109 197.998
-3.2730501 10.0023 197.827
-3.1338401 9.99753 197.733
-2.9949 9.9932098 197.64799
-2.71806 9.9871502 197.528
-2.5788901 9.9806995 197.401
-2.302 9.9718304 197.22501
-2.1629901 9.9639902 197.07001
-2.02457 9.9579 196.95
-1.88657 9.9531898 196.856
-1.74801 9.9445801 196.686
-1.6099499 9.9375401 196.547
-1.47181 9.9287004 196.37199
-1.33385 9.9193201 196.187
-1.19634 9.9115896 196.034
-1.05906 9.9040804 195.88499
-0.92189699 9.8954802 195.715
-0.78525901 9.8905497 195.618
-0.64867502 9.8843899 195.496
-0.51219898 9.8770304 195.35001
-0.375963 9.8706598 195.224
-0.23992801 9.8653498 195.119
-0.104019 9.8580503 194.97501
0.031705301 9.8556099 194.92599
0.16733401 9.8515301 194.84599
0.30275601 9.8443403 194.70399
0.438003 9.8377104 194.57201
0.57319403 9.83323 194.48399
0.70824897 9.8285704 194.392
0.84305799 9.8225603 194.27299
0.978118 9.8207102 194.23599
1.11287 9.8166199 194.155
1.24793 9.8158398 194.14
1.5166301 9.80548 193.935
1.65093 9.8012695 193.85201
1.78541 9.7986603 193.8
1.9198101 9.7960501 193.748
2.0543799 9.79459 193.72
2.1889501 9.7932796 193.694
2.3224199 9.7875299 193.58
2.45629 9.7839699 193.509
2.59039 9.7816401 193.464
2.72399 9.7777796 193.38699
2.85835 9.7768803 193.369
2.9923401 9.7748404 193.32899
3.12586 9.7714996 193.263
3.25984 9.7698097 193.229
3.39358 9.7675896 193.186
3.52894 9.76999 193.233
3.66239 9.7671499 193.177
3.79598 9.7648497 193.131
3.93119 9.7667599 193.16901
4.0658898 9.7672901 193.17999
4.2005801 9.7677698 193.189
4.3350601 9.7677402 193.189
4.46876 9.7660303 193.155
4.6025701 9.7646399 193.127
4.73876 9.76824 193.198
4.8738699 9.7694702 193.22301
5.0097499 9.7721395 193.276
5.1448898 9.7732697 193.298
5.28089 9.7759104 193.35001
5.4173298 9.7792397 193.416
5.5539598 9.7827301 193.485
5.6887698 9.7829199 193.489
5.8249602 9.7854404 193.539
5.95895 9.7842102 193.51401
6.0946698 9.78582 193.54601
6.2312198 9.7886696 193.603
6.36658 9.7895699 193.62
6.5029898 9.7920198 193.66901
6.6384702 9.7929802 193.688
6.77214 9.7912903 193.65401
6.9074502 9.7919998 193.668
7.0440302 9.7944498 193.717
7.17836 9.7937202 193.702
7.4530001 9.80023 193.83099
7.5869699 9.7989902 193.80701
7.7242799 9.8020201 193.867
7.8604002 9.8034697 193.895
7.9980402 9.8067303 193.96001
8.1345301 9.8084898 193.995
8.2723999 9.8118401 194.061
8.4089499 9.81353 194.09399
8.5496397 9.8199301 194.22099
8.6895599 9.8252602 194.326
8.8295803 9.8305397 194.431
8.9689999 9.835 194.519
9.1104498 9.8415203 194.64799
9.2506504 9.8465204 194.74699
9.39149 9.8520498 194.856
9.5348101 9.8599796 195.013
9.6769505 9.8664799 195.142
9.8173399 9.8710499 195.23199
9.9578896 9.8756504 195.323
10.2449 9.8901701 195.61
10.3913 9.8999596 195.804
10.541 9.9125299 196.052
10.6923 9.92628 196.32401
10.8429 9.9390497 196.577
10.9914 9.9495697 196.785
11.1408 9.9606705 197.004
11.2866 9.9683399 197.15601
11.4328 9.9761801 197.311
11.5755 9.9807396 197.401
11.7176 9.9847002 197.48
11.8612 9.9898701 197.582
12.0068 9.9966297 197.716
12.1513 10.0023 197.827
12.2952 10.0073 197.92599
12.4367 10.0103 197.98599
12.5793 10.014 198.06
12.7232 10.0188 198.15401
12.8669 10.0233 198.243
13.015 10.0311 198.397
13.1589 10.0354 198.483
13.4516 10.0477 198.72501
13.6005 10.0555 198.88
13.7566 10.0684 199.13499
13.9097 10.0789 199.342
14.0614 10.0882 199.526
14.2223 10.1038 199.83501
14.3831 10.1191 200.13699
14.5563 10.1427 200.604
-6.0979199 10.2587 200.142
-5.8106298 10.2435 199.845
-5.6682601 10.2376 199.731
-5.5257702 10.2312 199.606
-5.3836999 10.2253 199.491
-5.0996699 10.2128 199.245
-4.9576898 10.206 199.114
-4.8162999 10.2001 198.99899
-4.6753602 10.1949 198.897
-4.3938599 10.1843 198.69
-4.2534699 10.1793 198.593
-3.9727499 10.1685 198.382
-3.83304 10.1643 198.299
-3.55318 10.1535 198.089
-3.4144101 10.1509 198.039
-3.1352601 10.1398 197.823
-2.99632 10.1357 197.742
-2.8583 10.1344 197.717
-2.7190001 10.1282 197.59599
-2.5799401 10.1223 197.481
-2.44139 10.1179 197.394
-2.3027401 10.1125 197.289
-2.16377 10.1049 197.14101
-2.02491 10.0968 196.983
-1.88656 10.0903 196.856
-1.60969 10.0728 196.515
-1.47175 10.065 196.36301
-1.3338799 10.0562 196.19099
-1.1963201 10.048 196.03101
-1.05897 10.0397 195.868
-0.92159897 10.0286 195.65199
-0.78520101 10.0261 195.603
-0.64863503 10.0199 195.48399
-0.51216799 10.0125 195.338
-0.375945 10.0062 195.215
-0.239898 10 195.095
-0.104009 9.9929399 194.957
0.031702202 9.9904099 194.907
0.167325 9.9867096 194.83501
0.30271301 9.9785604 194.67599
0.43797699 9.97264 194.561
0.57314098 9.9677601 194.466
0.708188 9.9631205 194.375
0.84297103 9.9568396 194.25301
0.97799498 9.9547501 194.21201
1.11277 9.9509602 194.138
1.24779 9.9498997 194.117
1.51641 9.9390898 193.90601
1.65071 9.9349804 193.826
1.78523 9.9326696 193.78101
1.9197299 9.9306002 193.741
2.0541101 9.9282198 193.694
2.18857 9.9264698 193.66
2.3225 9.9227104 193.58701
2.4560599 9.9178495 193.492
2.5901799 9.9155998 193.448
2.7239201 9.91224 193.382
2.8583701 9.9116297 193.371
2.99228 9.9092798 193.325
3.12554 9.9051104 193.243
3.25965 9.9038401 193.21899
3.39378 9.90273 193.19701
3.5287299 9.9040203 193.222
3.6624 9.90172 193.177
3.79638 9.9004297 193.15199
3.9305 9.8995504 193.13499
4.0650902 9.8999004 193.142
4.2006798 9.9025698 193.194
4.3348498 9.9018402 193.17999
4.4677901 9.8984203 193.11301
4.60218 9.8983202 193.11099
4.7394099 9.90415 193.22501
4.8737502 9.9038095 193.218
5.0097899 9.9068298 193.27699
5.14428 9.9067202 193.27499
5.2810102 9.91082 193.355
5.41675 9.9129 193.395
5.55304 9.9158497 193.453
5.68823 9.91675 193.47099
5.8235998 9.9179201 193.493
5.9576998 9.9169302 193.474
6.0935998 9.9188995 193.51199
6.2297802 9.9212303 193.558
6.3663201 9.9240198 193.612
6.5018201 9.9251099 193.634
6.6370902 9.9258204 193.647
6.7708001 9.9242096 193.616
6.90521 9.9236803 193.606
7.0420399 9.9265699 193.662
7.1768198 9.9265203 193.661
7.3138599 9.9295397 193.72
7.4500198 9.9312696 193.754
7.5845299 9.9307804 193.744
7.72118 9.9330597 193.789
7.8585401 9.9361601 193.849
8.13276 9.9414501 193.952
8.2706203 9.94487 194.019
8.4063902 9.9456902 194.035
8.5466499 9.9517298 194.153
8.6864996 9.9570999 194.258
8.8257999 9.9617004 194.347
8.9661198 9.9672804 194.45599
9.1071997 9.9735403 194.578
9.2474604 9.9787197 194.679
9.3874102 9.9834204 194.771
9.5313196 9.9921398 194.94099
9.6746702 10 195.09599
9.8137903 10.0034 195.161
9.9552097 10.009 195.27
10.097 10.0148 195.383
10.2426 10.0242 195.567
10.3865 10.0317 195.713
10.533 10.0415 195.90401
10.6846 10.0558 196.183
10.837 10.0705 196.47
10.9869 10.0826 196.705
11.1375 10.0949 196.94701
11.2857 10.1048 197.13901
11.4308 10.1118 197.276
11.574 10.117 197.37601
11.7178 10.1225 197.48399
11.8608 10.1272 197.576
12.0048 10.1326 197.68201
12.1511 10.1399 197.82401
12.2938 10.144 197.90401
12.4358 10.1475 197.97099
12.5786 10.1515 198.05
12.7216 10.1556 198.13
13.013 10.1677 198.366
13.1551 10.1708 198.427
13.302 10.1775 198.558
13.4476 10.1831 198.666
13.5977 10.1919 198.838
13.7509 10.2029 199.054
13.9039 10.2135 199.259
14.0551 10.2226 199.437
14.3723 10.2508 199.987
14.5417 10.2721 200.403
-6.2469902 10.4143 200.45399
-5.9591699 10.3991 200.161
-5.6726899 10.3849 199.88699
-5.3873501 10.3713 199.62601
-5.24472 10.3641 199.487
-5.1030502 10.3584 199.377
-4.9608798 10.3513 199.242
-4.6786299 10.3406 199.036
-4.53758 10.335 198.92599
-4.2559199 10.3236 198.707
-4.11551 10.3184 198.60699
-3.9745901 10.3115 198.474
-3.83476 10.307 198.388
-3.69504 10.3025 198.302
-3.55496 10.2966 198.188
-3.41609 10.2939 198.136
-3.27617 10.2877 198.01601
-2.9977701 10.2784 197.838
-2.8594899 10.2764 197.799
-2.72034 10.2709 197.694
-2.5811801 10.2648 197.576
-2.44224 10.259 197.463
-2.1640999 10.2438 197.17101
-1.88669 10.2281 196.87
-1.74804 10.2188 196.69
-1.60969 10.2097 196.51601
-1.47167 10.2013 196.353
-1.33363 10.191 196.155
-1.19625 10.1839 196.019
-1.05896 10.176 195.866
-0.92162102 10.1651 195.65601
-0.785164 10.1618 195.59399
-0.64859998 10.1555 195.47301
-0.51212502 10.1477 195.32201
-0.37591901 10.1414 195.201
-0.239888 10.1355 195.08701
-0.104004 10.1282 194.946
0.031702001 10.1261 194.90601
0.167303 10.121 194.80901
0.302681 10.1131 194.65601
0.43795499 10.1077 194.55099
0.57312101 10.1029 194.459
0.70816398 10.0982 194.369
0.84297299 10.0922 194.25301
0.97795802 10.0896 194.20399
1.1127501 10.0859 194.133
1.2476 10.0836 194.088
1.38191 10.0777 193.97501
1.5162801 10.0733 193.88901
1.65053 10.0689 193.804
1.78519 10.0674 193.776
1.91967 10.0652 193.73399
2.0540199 10.0627 193.686
2.1883399 10.0603 193.64
2.32213 10.0559 193.556
2.4558301 10.0517 193.47301
2.58987 10.0492 193.425
2.7237699 10.0464 193.37199
2.85818 10.0457 193.358
2.9920499 10.0432 193.31
3.12555 10.0397 193.243
3.2593901 10.0376 193.203
3.3940101 10.038 193.21001
3.52882 10.0388 193.22701
3.6625299 10.0366 193.18401
3.7962301 10.0345 193.144
3.9302001 10.0333 193.12
4.0653 10.035 193.15199
4.2007298 10.0372 193.196
4.3339801 10.0344 193.14101
4.46768 10.0327 193.108
4.6020198 10.0325 193.104
4.7392502 10.0384 193.218
4.8740001 10.0389 193.228
5.0096202 10.0411 193.27
5.1438498 10.0405 193.258
5.2795701 10.0428 193.302
5.4155998 10.0455 193.354
5.55193 10.0486 193.414
5.68677 10.0489 193.42101
5.8223901 10.0506 193.453
5.9566998 10.05 193.44099
6.0924101 10.0517 193.474
6.2286 10.0541 193.521
6.3646102 10.0562 193.56
6.5005398 10.058 193.59599
6.6359 10.0589 193.61301
6.76931 10.0569 193.57401
6.9035501 10.0561 193.55901
7.0401101 10.0587 193.60899
7.1749101 10.0587 193.60899
7.3111 10.0607 193.647
7.4478302 10.0633 193.69701
7.5820799 10.0625 193.68201
7.7189498 10.0651 193.733
7.8562002 10.0682 193.79201
7.9914598 10.0686 193.8
8.2690897 10.0781 193.983
8.4043198 10.0784 193.98801
8.5440998 10.084 194.095
8.6840897 10.0896 194.20399
8.8212795 10.0919 194.248
8.9621096 10.0982 194.369
9.1035299 10.105 194.5
9.2441301 10.1107 194.60899
9.3834896 10.1149 194.69
9.5267801 10.1231 194.849
9.6694298 10.1304 194.99001
9.8094797 10.1349 195.076
9.9503403 10.1401 195.175
10.0934 10.1473 195.314
10.2412 10.159 195.53999
10.3816 10.1632 195.62
10.5274 10.1725 195.8
10.6783 10.1864 196.067
10.8305 10.2012 196.35201
11.1337 10.2286 196.87801
11.2828 10.2396 197.09
11.429 10.2476 197.246
11.572 10.2527 197.343
11.7166 10.259 197.464
11.8595 10.2637 197.55499
12.0022 10.2681 197.63901
12.1489 10.2758 197.78799
12.2929 10.2811 197.88901
12.4347 10.2844 197.953
12.5766 10.2878 198.01801
12.7191 10.2915 198.09
12.8646 10.2976 198.20799
13.011 10.3042 198.33501
13.1529 10.3073 198.394
13.2994 10.3138 198.51801
13.4436 10.3184 198.608
13.5931 10.3269 198.772
13.8968 10.347 199.158
14.208 10.3717 199.634
14.3672 10.3864 199.916
14.5341 10.4062 200.298
-6.1076398 10.5543 200.461
-5.96385 10.5468 200.31799
-5.82025 10.5393 200.17599
-5.5338998 10.5248 199.89999
-5.2483702 10.5103 199.625
-5.1061401 10.5036 199.498
-4.9639702 10.4967 199.366
-4.8226299 10.4911 199.261
-4.6814098 10.4855 199.15401
-4.5401702 10.4795 199.03999
-4.3986101 10.4724 198.90401
-4.1175799 10.4619 198.707
-3.97649 10.4547 198.569
-3.83674 10.4506 198.491
-3.697 10.4462 198.407
-3.55726 10.4414 198.31599
-3.2783201 10.4324 198.146
-3.1386299 10.4266 198.035
-2.8608 10.4189 197.89
-2.7214301 10.4128 197.77299
-2.44296 10.3995 197.521
-2.30392 10.3926 197.39
-2.1646299 10.3836 197.21899
-2.02542 10.3738 197.033
-1.88685 10.3661 196.886
-1.74816 10.3564 196.702
-1.60974 10.3469 196.522
-1.4716001 10.3376 196.34399
-1.33359 10.3273 196.149
-1.19608 10.319 195.992
-1.05878 10.3106 195.83299
-0.921624 10.3014 195.657
-0.78509998 10.2972 195.578
-0.64854002 10.2908 195.455
-0.51209402 10.2831 195.31
-0.3759 10.2769 195.19099
-0.239859 10.2701 195.063
-0.103983 10.2619 194.907
0.0316975 10.2604 194.87801
0.16729 10.256 194.795
0.30266601 10.2482 194.646
0.43794399 10.2429 194.54601
0.57309002 10.2378 194.44901
0.70815402 10.2334 194.366
0.84292299 10.2269 194.241
0.97787797 10.2241 194.189
1.1126601 10.2204 194.118
1.24756 10.2185 194.082
1.38187 10.2125 193.96899
1.5161999 10.2078 193.88
1.65042 10.2032 193.791
1.7850699 10.2017 193.76401
1.91951 10.1993 193.718
2.05393 10.1971 193.677
2.1882601 10.1948 193.633
2.3218999 10.1897 193.536
2.45556 10.1853 193.452
2.58972 10.1833 193.414
2.72384 10.1813 193.377
2.858 10.1797 193.345
2.9919901 10.1776 193.306
3.12534 10.1736 193.231
3.25914 10.1714 193.188
3.3938601 10.1721 193.201
3.5288 10.1734 193.226
3.66258 10.1713 193.187
3.79614 10.1688 193.14
3.93066 10.169 193.14301
4.0655799 10.1702 193.16499
4.20047 10.1712 193.18401
4.3337002 10.1683 193.12801
4.4678602 10.1676 193.116
4.6023598 10.1677 193.118
4.7391901 10.1729 193.216
4.8743401 10.1742 193.241
5.0091701 10.1748 193.25301
5.1436801 10.1748 193.252
5.2788501 10.176 193.276
5.41505 10.1791 193.33501
5.5506701 10.181 193.371
5.6854801 10.1813 193.377
5.8216901 10.1841 193.42999
5.9559598 10.1835 193.41701
6.0914798 10.1849 193.44501
6.2279 10.1878 193.49899
6.3628802 10.1882 193.508
6.4988298 10.1902 193.545
6.63377 10.1905 193.55099
6.7673702 10.1888 193.51801
6.90206 10.1887 193.517
7.0385399 10.1913 193.56599
7.1732101 10.1912 193.563
7.3087301 10.1922 193.584
7.44524 10.1946 193.629
7.5798702 10.1944 193.625
7.7160501 10.1962 193.66
7.8538799 10.2002 193.73399
7.9890599 10.2006 193.742
8.1276903 10.2053 193.83099
8.2666702 10.2103 193.92599
8.4017696 10.2104 193.929
8.5416203 10.2162 194.039
8.6806698 10.2209 194.12801
8.8176403 10.223 194.168
8.9583797 10.2293 194.289
9.09974 10.2362 194.41901
9.2406902 10.2424 194.537
9.3809299 10.2477 194.63699
9.5234003 10.2552 194.78
9.66675 10.2634 194.936
9.8070002 10.2682 195.026
10.0897 10.2795 195.242
10.2361 10.2901 195.44299
10.3773 10.2952 195.539
10.5222 10.3038 195.703
10.6718 10.3167 195.948
10.8236 10.3314 196.228
10.979 10.3491 196.563
11.13 10.3622 196.813
11.2808 10.375 197.05499
11.4268 10.383 197.20799
11.5696 10.3879 197.3
11.7149 10.395 197.436
11.8573 10.3993 197.517
11.9999 10.4038 197.60201
12.1466 10.4116 197.75101
12.2905 10.4169 197.851
12.4331 10.4209 197.927
12.5748 10.4242 197.99001
12.7166 10.4274 198.05099
12.863 10.4343 198.18201
13.009 10.4408 198.30499
13.1511 10.4441 198.367
13.2962 10.4495 198.47099
13.4406 10.4544 198.562
13.5885 10.4619 198.705
13.7428 10.474 198.936
13.8914 10.4816 199.08
14.0439 10.492 199.278
14.1989 10.5041 199.507
14.3587 10.5194 199.798
14.5244 10.5387 200.164
14.687 10.5554 200.48199
-5.9679599 10.6937 200.45599
-5.8245602 10.6866 200.32401
-5.6816201 10.6801 200.201
-5.3954501 10.6654 199.92599
-5.1098499 10.6503 199.64301
-4.8250399 10.6352 199.36
-4.68362 10.6292 199.248
-4.40099 10.6166 199.01199
-4.2607698 10.6125 198.93401
-3.97927 10.6004 198.70799
-3.83917 10.5955 198.616
-3.6992099 10.5907 198.52499
-3.5591199 10.5851 198.42
-3.41993 10.5818 198.35899
-3.1405001 10.5708 198.153
-3.0015299 10.5672 198.086
-2.7227199 10.5556 197.867
-2.58337 10.549 197.744
-2.4435799 10.5398 197.57201
-2.3044701 10.5326 197.437
-2.165 10.5228 197.25301
-2.02562 10.5121 197.052
-1.88699 10.504 196.901
-1.74813 10.4933 196.7
-1.60971 10.4836 196.517
-1.47149 10.4735 196.32899
-1.33349 10.4631 196.134
-1.1959701 10.4546 195.974
-1.05866 10.4458 195.81
-0.92158902 10.4373 195.64999
-0.78504699 10.4328 195.565
-0.64846498 10.4257 195.43201
-0.51205403 10.4184 195.295
-0.37586099 10.4117 195.17101
-0.23982701 10.4046 195.036
-0.103969 10.3963 194.881
0.031693898 10.395 194.856
0.16727801 10.3909 194.78
0.30266699 10.3838 194.647
0.57306302 10.3727 194.439
0.70806497 10.3675 194.341
0.842843 10.3612 194.22301
0.977736 10.3578 194.16
1.11254 10.3544 194.097
1.24751 10.3532 194.07401
1.38196 10.3483 193.981
1.51614 10.3425 193.87199
1.6503299 10.3376 193.78101
1.7849801 10.3361 193.75301
1.91931 10.3332 193.698
2.05388 10.3318 193.672
2.18817 10.3293 193.625
2.3218701 10.3244 193.534
2.5897501 10.3181 193.416
2.7237799 10.3158 193.37199
2.85795 10.3142 193.342
2.9918399 10.3117 193.297
3.12534 10.3082 193.231
3.2590899 10.3058 193.185
3.3938999 10.3068 193.20399
3.5283501 10.3066 193.201
3.66258 10.3059 193.187
3.79618 10.3035 193.142
3.9307401 10.3038 193.147
4.0654402 10.3044 193.158
4.2003398 10.3054 193.17799
4.3337998 10.303 193.133
4.4678402 10.3021 193.11501
4.6025 10.3026 193.12399
4.7389798 10.307 193.207
4.8738699 10.3078 193.22301
5.0092602 10.3096 193.257
5.1438699 10.3098 193.25999
5.2785101 10.31 193.263
5.4132299 10.3103 193.27
5.5489502 10.3125 193.31
5.6841698 10.3137 193.332
5.8206401 10.317 193.395
5.95469 10.316 193.37601
6.0897799 10.3168 193.39101
6.2254701 10.3185 193.424
6.3608599 10.3197 193.446
6.49652 10.3213 193.476
6.6317902 10.3222 193.493
6.7656002 10.3209 193.467
6.9004798 10.3212 193.47301
7.0360398 10.3224 193.49699
7.171 10.3228 193.504
7.30723 10.325 193.54401
7.44313 10.3266 193.575
7.5774999 10.326 193.565
7.7129798 10.327 193.58299
7.8508501 10.3311 193.66
7.9878998 10.334 193.714
8.1260595 10.3382 193.793
8.2636099 10.3415 193.854
8.39886 10.3419 193.862
8.5380096 10.347 193.957
8.6778002 10.3526 194.063
8.8155098 10.3557 194.121
8.9554996 10.3613 194.226
9.0967302 10.3682 194.355
9.2369204 10.3737 194.45799
9.3773298 10.3793 194.562
9.6635103 10.3957 194.871
9.8041601 10.401 194.97
9.9453602 10.4067 195.077
10.0867 10.4125 195.18401
10.2311 10.4211 195.347
10.3753 10.4293 195.50101
10.5204 10.4383 195.66901
10.6672 10.4487 195.86301
10.8191 10.4637 196.144
10.9754 10.4825 196.498
11.1282 10.4976 196.78101
11.4244 10.5181 197.16499
11.5672 10.5232 197.261
11.7135 10.5313 197.412
11.8545 10.5344 197.47
11.9973 10.5391 197.55901
12.1429 10.5461 197.69
12.2874 10.552 197.80099
12.4303 10.5565 197.884
12.5719 10.5597 197.944
12.7144 10.5636 198.01801
12.8601 10.57 198.138
13.0061 10.5765 198.25999
13.1484 10.58 198.326
13.293 10.5853 198.424
13.4375 10.5902 198.517
13.5874 10.5994 198.688
13.7378 10.6087 198.86301
13.8867 10.6167 199.013
14.0384 10.6266 199.19901
14.1924 10.6381 199.41499
14.3497 10.6519 199.672
14.5159 10.6719 200.048
14.68 10.6899 200.386
-5.9742198 10.8447 200.66701
-5.8298602 10.836 200.506
-5.6859498 10.8278 200.354
-5.5426698 10.8203 200.216
-5.2562799 10.8047 199.92599
-4.9700599 10.7876 199.61
-4.8283601 10.7815 199.49699
-4.6865101 10.7747 199.371
-4.5450702 10.7684 199.255
-4.2630801 10.7569 199.04201
-4.1222 10.7508 198.92999
-3.98155 10.745 198.82201
-3.84165 10.7408 198.745
-3.7014899 10.7356 198.64799
-3.42184 10.7259 198.46899
-3.2822199 10.7212 198.381
-3.14205 10.7141 198.25101
-3.0031099 10.7108 198.19
-2.8634 10.7043 198.069
-2.72383 10.6977 197.94701
-2.5845101 10.6914 197.83099
-2.44449 10.6814 197.646
-2.30481 10.6717 197.466
-2.16539 10.6621 197.289
-2.0258 10.6503 197.07001
-1.88697 10.641 196.899
-1.74809 10.63 196.69501
-1.60955 10.6194 196.498
-1.4713399 10.6092 196.30901
-1.33345 10.5994 196.12801
-1.19594 10.5908 195.968
-1.0585999 10.5816 195.799
-0.92155498 10.5732 195.642
-0.78496999 10.5679 195.54601
-0.511967 10.5526 195.26199
-0.37580401 10.5461 195.142
-0.239787 10.5387 195.004
-0.103953 10.5304 194.851
0.0316916 10.5299 194.842
0.167262 10.5256 194.76199
0.30261299 10.5175 194.612
0.573035 10.5076 194.42999
0.70797902 10.5016 194.31799
0.84272599 10.495 194.196
0.977727 10.493 194.159
1.11251 10.4894 194.092
1.24751 10.4884 194.073
1.3819 10.483 193.974
1.5161 10.4772 193.867
1.65025 10.472 193.771
1.78497 10.471 193.75301
1.91931 10.4681 193.69901
2.0538399 10.4665 193.668
2.1881001 10.4638 193.618
2.32195 10.4596 193.541
2.4558101 10.4559 193.472
2.5899 10.4534 193.427
2.72385 10.4508 193.37801
2.85796 10.4489 193.342
2.99172 10.446 193.289
3.12533 10.4428 193.23
3.25899 10.44 193.179
3.39378 10.441 193.19701
3.52861 10.442 193.215
3.66271 10.4408 193.194
3.79582 10.437 193.123
3.93049 10.4376 193.13499
4.0653601 10.4387 193.155
4.2000098 10.4392 193.16299
4.3341098 10.4383 193.147
4.46839 10.4379 193.13901
4.60251 10.4371 193.125
4.7389798 10.4416 193.207
4.87392 10.4425 193.22501
5.0094199 10.4446 193.263
5.14325 10.4431 193.23599
5.2776399 10.4429 193.231
5.5479999 10.4453 193.27699
5.6831198 10.4464 193.297
5.8192801 10.4493 193.35001
5.9532299 10.4481 193.32899
6.0875702 10.4477 193.321
6.2227201 10.4487 193.339
6.3585401 10.4507 193.37601
6.4935699 10.4513 193.388
6.6296 10.4535 193.429
6.7639799 10.4531 193.42101
6.89855 10.453 193.41901
7.03409 10.4543 193.44299
7.1690602 10.4548 193.452
7.3055401 10.4573 193.49899
7.4412999 10.4588 193.52699
7.5759902 10.4588 193.526
7.71066 10.4587 193.52499
7.84833 10.4626 193.597
7.98564 10.466 193.659
8.1236 10.47 193.73399
8.2604799 10.4726 193.78101
8.3961697 10.4736 193.799
8.6746197 10.484 193.992
8.8123999 10.4872 194.052
8.9523001 10.4929 194.157
9.0926704 10.4989 194.26801
9.2318096 10.5033 194.35001
9.3733397 10.5103 194.479
9.5153999 10.5177 194.616
9.6588802 10.5264 194.77699
9.8004503 10.5328 194.896
9.9408503 10.5378 194.989
10.2282 10.5542 195.29201
10.3733 10.5635 195.464
10.5169 10.5711 195.604
10.6643 10.5822 195.81
10.8142 10.5956 196.05701
10.9721 10.6163 196.44
11.1238 10.6306 196.705
11.2726 10.6418 196.912
11.4204 10.6518 197.097
11.5649 10.6584 197.22
11.7106 10.6661 197.36301
11.8523 10.67 197.435
11.9945 10.6742 197.51199
12.1375 10.6791 197.60201
12.2836 10.6864 197.739
12.427 10.6914 197.83099
12.5698 10.6958 197.911
12.7124 10.6998 197.98599
12.8576 10.706 198.10001
13.003 10.7122 198.215
13.1478 10.7177 198.31599
13.2915 10.7223 198.40199
13.4361 10.7274 198.49699
13.5866 10.7371 198.677
13.7351 10.7451 198.825
13.8826 10.7522 198.955
14.0326 10.761 199.118
14.1861 10.7723 199.327
14.3424 10.7854 199.57001
14.5074 10.8049 199.931
14.6695 10.8217 200.242
-5.97826 10.9919 200.80299
-5.8341398 10.9837 200.65401
-5.6909599 10.977 200.53
-5.5475402 10.9694 200.392
-5.40382 10.9609 200.23599
-5.1174402 10.9447 199.94
-4.97369 10.9346 199.756
-4.8316002 10.9278 199.631
-4.5482402 10.9148 199.394
-4.4068198 10.9083 199.276
-4.26546 10.9016 199.153
-4.1247802 10.8962 199.054
-3.9841499 10.8906 198.951
-3.7041299 10.8817 198.78999
-3.56411 10.8767 198.698
-3.2838399 10.8647 198.479
-3.14393 10.8587 198.37
-2.8647799 10.8475 198.16499
-2.7249899 10.8402 198.032
-2.58529 10.8325 197.89101
-2.44502 10.8214 197.688
-2.3050201 10.8102 197.48399
-2.1656799 10.801 197.315
-2.0258801 10.788 197.077
-1.88701 10.7784 196.903
-1.74793 10.766 196.677
-1.60948 10.7558 196.49001
-1.47127 10.7454 196.3
-1.33325 10.7344 196.099
-1.19583 10.7263 195.951
-1.05853 10.7173 195.787
-0.92143798 10.7081 195.618
-0.78487802 10.7029 195.52299
-0.64827001 10.6947 195.37399
-0.51187497 10.6867 195.22701
-0.375743 10.6803 195.11
-0.23976099 10.6733 194.983
-0.103942 10.665 194.832
0.16725799 10.661 194.757
0.30261099 10.653 194.61099
0.43784201 10.6469 194.50101
0.573017 10.6427 194.424
0.70800602 10.6373 194.325
0.84272599 10.6303 194.196
0.97778898 10.6289 194.17101
1.11261 10.6255 194.10899
1.24757 10.6241 194.08299
1.5161 10.6123 193.867
1.6503299 10.6075 193.78101
1.78497 10.606 193.752
1.91922 10.6025 193.689
2.05373 10.6008 193.658
2.1880701 10.5985 193.616
2.32183 10.5938 193.53101
2.4558201 10.5906 193.472
2.59007 10.5889 193.44
2.7237501 10.585 193.37
2.85781 10.583 193.33299
2.9914899 10.5798 193.274
3.12521 10.577 193.22301
3.25897 10.5745 193.17799
3.39382 10.5757 193.19901
3.5285101 10.5763 193.21001
3.6626301 10.5752 193.19
3.7957499 10.5714 193.12
3.92994 10.5707 193.108
4.0655999 10.5739 193.166
4.2005801 10.5752 193.189
4.3343501 10.5734 193.157
4.46838 10.5724 193.138
4.6023998 10.5714 193.12
4.7395601 10.5774 193.231
4.8740902 10.5775 193.23199
5.0091801 10.5787 193.25301
5.1419601 10.5751 193.188
5.2764602 10.5751 193.188
5.41014 10.5735 193.159
5.5474 10.5788 193.256
5.6823702 10.5796 193.271
5.8178301 10.5813 193.302
5.9518399 10.5803 193.284
6.2206702 10.5798 193.27499
6.3565698 10.5821 193.31599
6.6269798 10.5841 193.353
6.76197 10.5847 193.364
6.8965402 10.5846 193.36301
7.3037601 10.5895 193.452
7.43892 10.5902 193.465
7.5745401 10.5916 193.489
7.7089 10.5911 193.481
7.8462601 10.5947 193.54601
7.9837799 10.5984 193.614
8.1206198 10.6011 193.66299
8.2579403 10.6043 193.722
8.3932199 10.6048 193.731
8.53269 10.6105 193.836
8.8082104 10.6173 193.96001
8.9484196 10.6235 194.073
9.0894403 10.6304 194.19901
9.2285299 10.6349 194.28101
9.3689404 10.6408 194.388
9.5122004 10.6497 194.55
9.6547604 10.6575 194.694
9.7972803 10.6651 194.83299
9.93785 10.6704 194.92999
10.0802 10.6775 195.05901
10.2244 10.6863 195.22
10.3694 10.6956 195.39
10.5132 10.7036 195.536
10.6603 10.7146 195.73599
10.8094 10.7273 195.96899
10.9679 10.7489 196.364
11.1188 10.7627 196.616
11.2681 10.7746 196.83299
11.4171 10.7859 197.039
11.5618 10.7929 197.168
11.7069 10.8002 197.3
11.8491 10.8046 197.38
11.9915 10.8091 197.463
12.1339 10.8134 197.543
12.279 10.8201 197.66499
12.4232 10.8259 197.771
12.5677 10.8318 197.877
12.7098 10.8355 197.94501
12.8544 10.8413 198.05099
13 10.8476 198.16701
13.1461 10.8544 198.291
13.2912 10.8602 198.396
13.435 10.8648 198.481
13.5843 10.8737 198.64301
13.7325 10.8815 198.786
13.879 10.8879 198.903
14.0281 10.8962 199.054
14.1787 10.9054 199.22301
14.337 10.9204 199.496
14.4998 10.9384 199.825
14.6593 10.9536 200.103
-5.8387198 11.1322 200.811
-5.6954999 11.1255 200.69
-5.5517101 11.1174 200.543
-5.4082298 11.1094 200.399
-5.2650599 11.1017 200.25999
-5.1210699 11.0918 200.08099
-4.9777298 11.0828 199.91901
-4.6932602 11.0683 199.658
-4.4095101 11.0539 199.397
-4.2688699 11.0491 199.312
-3.98733 11.0379 199.11
-3.8467801 11.0324 199.00999
-3.56668 11.0231 198.842
-3.4266701 11.018 198.75
-3.1459501 11.004 198.498
-3.0060599 10.9977 198.38499
-2.8661699 10.9909 198.261
-2.7260001 10.9822 198.105
-2.5861299 10.9739 197.955
-2.44543 10.9609 197.72099
-2.3053701 10.9495 197.51401
-2.02583 10.925 197.073
-1.88683 10.9145 196.884
-1.6092401 10.891 196.46001
-1.47112 10.881 196.27901
-1.33322 10.8708 196.095
-1.19574 10.862 195.936
-1.05832 10.8515 195.74699
-0.92131901 10.8429 195.592
-0.78481901 10.8382 195.508
-0.64822698 10.8301 195.36099
-0.51184899 10.8221 195.217
-0.37571299 10.8153 195.095
-0.239739 10.8082 194.965
-0.103928 10.7993 194.80499
0.0316815 10.7979 194.78
0.167255 10.7964 194.754
0.30262399 10.789 194.619
0.437866 10.783 194.511
0.57300597 10.7779 194.42
0.707986 10.7724 194.319
0.84280503 10.7665 194.214
0.97786701 10.765 194.186
1.11269 10.7615 194.123
1.24769 10.7603 194.10201
1.38185 10.7528 193.966
1.51609 10.7472 193.866
1.65027 10.7421 193.774
1.78499 10.7411 193.755
1.91913 10.7369 193.67999
2.0536001 10.735 193.646
2.1879201 10.7326 193.60201
2.3216701 10.7279 193.517
2.4556999 10.7249 193.463
2.58987 10.7228 193.425
2.7237599 10.7198 193.371
2.85781 10.7176 193.332
2.9914501 10.7143 193.271
3.1252699 10.7118 193.226
3.25916 10.7097 193.189
3.3937299 10.71 193.194
3.52844 10.7106 193.20599
3.6622601 10.7086 193.17
3.7955999 10.7054 193.112
3.93012 10.7057 193.116
4.0654602 10.708 193.159
4.20047 10.7094 193.18401
4.3346701 10.7087 193.17101
4.46803 10.706 193.123
4.6024098 10.7059 193.121
4.7390599 10.7109 193.211
4.8736601 10.7111 193.215
5.0082998 10.7114 193.22
5.1415401 10.7087 193.172
5.2755799 10.7079 193.15601
5.4095302 10.7068 193.13699
5.5461798 10.7111 193.214
5.6813202 10.7123 193.23599
5.816 10.7126 193.241
6.0843401 10.7113 193.218
6.2186599 10.711 193.21201
6.3537102 10.7119 193.229
6.48875 10.7128 193.244
6.6248498 10.7153 193.28999
6.7595301 10.7155 193.29401
6.8943 10.7158 193.3
7.0297198 10.7171 193.323
7.1652198 10.7185 193.34801
7.3015599 10.7211 193.394
7.7070799 10.7233 193.435
7.8438601 10.7262 193.487
7.98212 10.731 193.57401
8.1181097 10.7326 193.603
8.2554998 10.736 193.664
8.3907499 10.7366 193.674
8.5295296 10.7416 193.76401
8.6688499 10.7471 193.86301
8.8064203 10.7502 193.92101
8.9448299 10.7544 193.995
9.08671 10.7624 194.14101
9.2262201 10.7675 194.23199
9.3654003 10.7721 194.315
9.50846 10.7809 194.474
9.6508904 10.7888 194.616
9.7920904 10.7951 194.73
9.9345999 10.8027 194.866
10.0767 10.8096 194.991
10.22 10.8175 195.13499
10.3664 10.8286 195.334
10.5101 10.8366 195.47701
10.655 10.8455 195.64
10.8056 10.86 195.89999
10.9624 10.8802 196.265
11.1174 10.8983 196.591
11.2668 10.9105 196.811
11.4152 10.9213 197.006
11.5595 10.9281 197.129
11.7051 10.9359 197.27
11.846 10.9392 197.33
11.9888 10.9441 197.418
12.133 10.9503 197.52901
12.2769 10.9559 197.631
12.4206 10.9614 197.73
12.5644 10.9668 197.827
12.7074 10.9713 197.908
12.8526 10.9777 198.02299
12.998 10.984 198.138
13.1441 10.9908 198.261
13.2889 10.9964 198.36099
13.4325 11.001 198.444
13.581 11.0094 198.595
13.7295 11.0176 198.744
13.8751 11.0233 198.84599
14.0244 11.0319 199.00101
14.173 11.0397 199.142
14.333 11.0562 199.439
14.4904 11.0704 199.696
14.649 11.0852 199.963
-5.7005301 11.2753 200.868
-5.5563998 11.2666 200.71201
-5.4123001 11.2575 200.55
-5.2693901 11.2504 200.425
-5.1258702 11.2417 200.269
-4.9829302 11.2337 200.127
-4.8403602 11.2262 199.993
-4.5553699 11.2101 199.70599
-4.2718501 11.1958 199.451
-4.1314702 11.1916 199.377
-3.8491499 11.1779 199.132
-3.7091501 11.1738 199.05901
-3.4287901 11.1633 198.873
-3.2881401 11.1558 198.74001
-3.0079 11.1427 198.506
-2.8677399 11.1351 198.37
-2.72735 11.1257 198.203
-2.44612 11.1018 197.77699
-2.30583 11.0892 197.55299
-2.16605 11.0777 197.34801
-2.0260201 11.0633 197.091
-1.8868901 11.052 196.89101
-1.7475801 11.0378 196.63699
-1.60917 11.0274 196.452
-1.47109 11.0175 196.27499
-1.33323 11.0074 196.09599
-1.19568 10.9979 195.92599
-1.05819 10.9865 195.724
-0.92115098 10.9772 195.55701
-0.78477299 10.9738 195.496
-0.64823997 10.9664 195.36501
-0.51185298 10.9582 195.218
-0.37572601 10.9516 195.101
-0.23973601 10.9438 194.963
-0.103926 10.9348 194.802
0.031681299 10.9335 194.77901
0.167256 10.9321 194.755
0.30263701 10.925 194.627
0.437868 10.9185 194.51199
0.573017 10.9136 194.424
0.70800102 10.9079 194.32401
0.97780401 10.8995 194.174
1.1127 10.8968 194.125
1.2476799 10.8954 194.10001
1.38182 10.8876 193.96201
1.51615 10.8827 193.873
1.65038 10.8778 193.787
1.78484 10.8751 193.73801
1.91896 10.8709 193.66299
2.05352 10.8695 193.63901
2.18804 10.8681 193.61301
2.3217299 10.8629 193.522
2.4554999 10.8588 193.448
2.5899999 10.8581 193.435
2.7237401 10.8544 193.37
2.85783 10.8524 193.334
2.99142 10.8488 193.27
3.1254301 10.8469 193.237
3.2594399 10.8452 193.20599
3.39381 10.8448 193.198
3.52794 10.8437 193.179
3.66207 10.8426 193.16
3.7955799 10.8399 193.11099
3.93016 10.8403 193.119
4.0652399 10.842 193.149
4.2003698 10.8437 193.179
4.3348799 10.8438 193.181
4.4683499 10.8413 193.13699
4.6026802 10.841 193.132
4.7379699 10.843 193.166
4.8730798 10.8444 193.19099
5.0075698 10.8444 193.19099
5.14114 10.8424 193.157
5.27492 10.841 193.132
5.4085999 10.8395 193.104
5.5445199 10.8424 193.15601
5.6794901 10.8434 193.173
5.8140101 10.8435 193.175
5.94874 10.8439 193.183
6.0829701 10.8435 193.175
6.21703 10.8427 193.162
6.3515 10.8427 193.162
6.4872098 10.8448 193.19901
6.6225901 10.8462 193.224
6.75741 10.8467 193.233
6.8923702 10.8474 193.246
7.0273299 10.8481 193.258
7.1633902 10.8504 193.298
7.2999902 10.8534 193.35201
7.43578 10.8552 193.383
7.5707202 10.8556 193.39101
7.70611 10.8567 193.41
7.8422999 10.8588 193.44901
7.9805002 10.8636 193.534
8.1162395 10.865 193.558
8.2536297 10.8685 193.62
8.3887501 10.8689 193.62801
8.5268402 10.8731 193.703
8.6657305 10.8782 193.793
8.8039503 10.8823 193.866
8.9428596 10.8871 193.952
9.0836697 10.894 194.076
9.2242899 10.9005 194.192
9.36273 10.9043 194.259
9.5044498 10.9118 194.392
9.6454897 10.9182 194.507
9.7888098 10.9271 194.664
9.9300499 10.9334 194.77699
10.0732 10.9416 194.922
10.2178 10.9512 195.09399
10.3629 10.9609 195.267
10.5068 10.9692 195.41499
10.6517 10.9784 195.57899
10.8021 10.9929 195.83701
10.9561 11.0106 196.153
11.1143 11.0322 196.537
11.2645 11.0453 196.77
11.4113 11.0548 196.94
11.5568 11.0628 197.08299
11.7031 11.0714 197.23599
11.8439 11.0747 197.29401
11.9866 11.0797 197.383
12.1312 11.0862 197.49899
12.2743 11.0913 197.59
12.4185 11.0972 197.696
12.5616 11.1021 197.782
12.7042 11.1064 197.85899
12.8503 11.1136 197.98801
12.9965 11.1207 198.114
13.1431 11.1281 198.246
13.2867 11.1328 198.33
13.4305 11.1375 198.414
13.5777 11.145 198.54601
13.7265 11.1536 198.7
13.8717 11.1591 198.798
14.021 11.1678 198.953
14.167 11.1737 199.05901
14.3293 11.1923 199.38901
14.4836 11.2042 199.60201
14.6396 11.2173 199.834
14.8038 11.2363 200.173
-5.7073102 11.4287 201.106
-5.4173398 11.4078 200.737
-5.2732 11.3983 200.57001
-5.1299601 11.3902 200.429
-4.98699 11.3824 200.28999
-4.7016802 11.3668 200.01601
-4.41746 11.352 199.757
-4.27595 11.3456 199.64301
-4.1341801 11.3379 199.508
-3.9931099 11.3317 199.399
-3.7116499 11.32 199.19299
-3.5711801 11.3143 199.092
-3.29023 11.3014 198.866
-3.1498101 11.2943 198.741
-3.0092399 11.286 198.59399
-2.86869 11.277 198.436
-2.7279401 11.2662 198.246
-2.5869601 11.2533 198.01801
-2.4463 11.2404 197.791
-2.30565 11.226 197.539
-2.1657801 11.2138 197.323
-2.0258501 11.1996 197.075
-1.88649 11.1867 196.84801
-1.6089 11.1624 196.41901
-1.47075 11.1517 196.231
-1.33283 11.1407 196.03799
-1.1954499 11.1323 195.88901
-1.0581 11.1219 195.707
-0.92114401 11.1133 195.55499
-0.78470701 11.109 195.48
-0.64823401 11.1023 195.36301
-0.51186103 11.0943 195.22099
-0.3757 11.0867 195.08701
-0.239731 11.0794 194.959
-0.103933 11.0711 194.813
0.167263 11.0682 194.76199
0.30264199 11.0607 194.631
0.43788901 11.0545 194.521
0.57304502 11.0495 194.433
0.70803797 11.0439 194.334
0.84273797 11.0362 194.19901
0.97777998 11.0345 194.16901
1.11268 11.0318 194.12199
1.2476701 11.0305 194.099
1.38177 11.0224 193.955
1.5161999 11.0181 193.88
1.65039 11.0128 193.78799
1.78473 11.0094 193.72701
1.9189301 11.0056 193.66
2.05338 11.0036 193.625
2.1879101 11.0023 193.60201
2.32165 10.9974 193.51601
2.45524 10.9923 193.427
2.5896001 10.9911 193.405
2.72352 10.9882 193.354
2.85765 10.9864 193.32201
2.9918101 10.9848 193.295
3.12553 10.9819 193.243
3.25933 10.9794 193.2
3.3936 10.9787 193.186
3.52806 10.9786 193.185
3.6619699 10.9769 193.155
3.7957599 10.9749 193.12
3.9302499 10.9751 193.123
4.0654898 10.9772 193.161
4.20051 10.9786 193.186
4.33496 10.9786 193.18401
4.46805 10.9751 193.12399
4.6023698 10.9748 193.119
4.7377 10.9769 193.155
4.8716798 10.9758 193.136
5.0061202 10.9758 193.13499
5.1398101 10.9742 193.10699
5.27319 10.972 193.06799
5.4069901 10.9707 193.047
5.5429201 10.9738 193.10001
5.6780701 10.9752 193.125
5.8126402 10.9754 193.129
5.9471002 10.9754 193.13
6.0806799 10.9739 193.10201
6.2153301 10.9743 193.10899
6.3498001 10.9743 193.11
6.4850402 10.9757 193.134
6.6206799 10.9777 193.16901
6.7554002 10.9781 193.17599
6.89081 10.9795 193.202
7.0261598 10.9809 193.22501
7.1620498 10.983 193.26199
7.2978501 10.9849 193.29601
7.4346099 10.9881 193.353
7.5686698 10.9873 193.339
7.7037702 10.9881 193.35201
7.8397899 10.9901 193.38699
8.1143503 10.9973 193.513
8.2511997 11.0001 193.564
8.3866596 11.001 193.58
8.5245399 11.005 193.651
8.6631098 11.0098 193.735
8.8021498 11.0151 193.827
8.9417295 11.0208 193.92799
9.08179 11.0269 194.035
9.22157 11.0325 194.134
9.3606997 11.0372 194.217
9.5021496 11.0445 194.345
9.6428003 11.0506 194.453
9.7854404 11.0589 194.59801
9.9269304 11.0656 194.716
10.0713 11.0753 194.88699
10.215 11.084 195.03999
10.3598 11.0936 195.209
10.5031 11.1014 195.34599
10.6457 11.1083 195.468
10.7973 11.1243 195.74899
10.9526 11.1437 196.09
11.1094 11.1641 196.45
11.2608 11.1787 196.70599
11.4079 11.1886 196.881
11.5518 11.1953 196.998
11.7003 11.2061 197.188
11.8415 11.2099 197.255
11.9847 11.2153 197.35001
12.1283 11.2211 197.453
12.2716 11.2264 197.54601
12.4161 11.2327 197.657
12.5597 11.2381 197.752
12.702 11.2423 197.825
12.8483 11.2497 197.95599
12.9938 11.2564 198.07401
13.1405 11.264 198.207
13.2837 11.2684 198.285
13.4258 11.2718 198.345
13.5732 11.2795 198.48
13.7212 11.2876 198.623
13.8673 11.294 198.735
14.0159 11.3023 198.881
14.1626 11.3089 198.99699
14.3223 11.3256 199.29201
14.477 11.3381 199.511
14.7969 11.3705 200.08099
-5.7129898 11.5803 201.30701
-5.5671 11.5684 201.099
-5.27809 11.5487 200.756
-5.1346998 11.5405 200.614
-4.9910898 11.5314 200.455
-4.8484402 11.524 200.327
-4.5632601 11.5082 200.052
-4.2796102 11.4945 199.813
-4.1373501 11.4857 199.661
-3.99635 11.4799 199.561
-3.8554699 11.4741 199.459
-3.71452 11.4676 199.347
-3.5738201 11.4615 199.24001
-3.4333799 11.4557 199.13901
-3.15167 11.4395 198.858
-2.8696799 11.4191 198.504
-2.7286699 11.4073 198.299
-2.58741 11.3932 198.05299
-2.44649 11.379 197.80701
-2.3057899 11.3643 197.55099
-2.16592 11.3519 197.336
-2.02584 11.3368 197.07401
-1.8863699 11.3232 196.836
-1.74739 11.3105 196.616
-1.60875 11.2981 196.401
-1.4706 11.2872 196.211
-1.33272 11.2763 196.022
-1.1953501 11.2677 195.87199
-1.0580699 11.2579 195.701
-0.92115003 11.2496 195.556
-0.78468001 11.2448 195.47301
-0.648242 11.2386 195.36501
-0.51187801 11.2307 195.228
-0.375707 11.2228 195.091
-0.23973501 11.2154 194.96201
-0.103924 11.2059 194.797
0.031683199 11.2055 194.78999
0.167265 11.204 194.765
0.302665 11.1972 194.646
0.437933 11.1912 194.541
0.57306802 11.1854 194.44099
0.70803398 11.1792 194.33299
0.84278101 11.172 194.209
0.97778398 11.1698 194.17
1.1126699 11.1669 194.12
1.2476 11.1651 194.089
1.3817199 11.1571 193.94901
1.51625 11.1535 193.886
1.6504101 11.148 193.791
1.78475 11.1444 193.729
1.9191 11.1414 193.677
2.0534899 11.1391 193.63499
2.18785 11.1368 193.597
2.3217199 11.1325 193.521
2.4552701 11.1272 193.429
2.58973 11.1263 193.414
2.72347 11.1226 193.35001
2.85761 11.1208 193.319
2.9916101 11.1187 193.282
3.1254699 11.1162 193.239
3.3933401 11.1124 193.172
3.5278201 11.1124 193.172
3.66184 11.111 193.14799
3.7958701 11.1098 193.12601
3.93066 11.1107 193.14301
4.0653501 11.1114 193.15401
4.2001901 11.1123 193.17101
4.3344798 11.1119 193.16299
4.4675899 11.1085 193.104
4.6018801 11.1082 193.099
4.7372499 11.1104 193.13699
4.8709402 11.1086 193.10699
5.1387801 11.1064 193.06799
5.2719498 11.1038 193.02299
5.40591 11.103 193.008
5.5412598 11.105 193.043
5.6764302 11.1065 193.069
5.8106999 11.1062 193.065
5.94558 11.1071 193.08
6.0789299 11.1052 193.04601
6.2136998 11.1059 193.058
6.3480401 11.1058 193.05701
6.4832401 11.1071 193.08
6.61868 11.1089 193.11
6.7537599 11.1099 193.129
6.8885798 11.1105 193.13901
7.02321 11.1108 193.144
7.1588998 11.1127 193.177
7.29527 11.1156 193.228
7.4321699 11.1192 193.28999
7.5664701 11.1188 193.283
7.70193 11.1201 193.306
7.8374901 11.1215 193.33
7.9755101 11.1263 193.41299
8.1124601 11.1294 193.468
8.2491598 11.1322 193.51601
8.3842802 11.1327 193.52499
8.5222502 11.1369 193.599
8.6602802 11.1411 193.67101
8.80021 11.1476 193.784
8.93995 11.1536 193.88901
9.0799799 11.1598 193.99699
9.2189198 11.1646 194.07899
9.3585997 11.17 194.174
9.4994898 11.1767 194.28999
9.6412096 11.1842 194.42101
9.7829599 11.1916 194.548
9.9248505 11.1988 194.675
10.0684 11.2078 194.83099
10.2125 11.2171 194.991
10.3557 11.2251 195.132
10.5 11.2342 195.28999
10.6421 11.2407 195.40199
10.7913 11.2544 195.64101
10.9442 11.2716 195.94
11.1005 11.2919 196.29201
11.2543 11.3091 196.592
11.4047 11.3225 196.825
11.5503 11.331 196.972
11.6975 11.3408 197.142
11.8389 11.3447 197.21001
11.9833 11.3515 197.328
12.1265 11.357 197.423
12.2702 11.3627 197.52299
12.4139 11.3684 197.623
12.558 11.3743 197.72501
12.6993 11.3776 197.783
12.845 11.3847 197.905
12.9917 11.3925 198.041
13.1373 11.3992 198.158
13.2808 11.404 198.242
13.423 11.4076 198.30299
13.57 11.4151 198.43401
13.7166 11.4222 198.55701
13.8625 11.4284 198.666
14.011 11.4368 198.811
14.1593 11.4448 198.951
14.3167 11.46 199.214
14.4714 11.4726 199.43401
14.6276 11.4863 199.67101
14.7859 11.5013 199.93201
-5.57935 11.7342 201.541
-5.4294 11.7134 201.18401
-5.2839799 11.7015 200.98
-5.1399598 11.6922 200.819
-4.9962401 11.683 200.662
-4.8527398 11.6739 200.505
-4.7098098 11.6656 200.362
-4.4253998 11.6512 200.116
-4.28337 11.6438 199.989
-4.1411099 11.6353 199.842
-3.9997799 11.6289 199.73199
-3.7174399 11.6156 199.504
-3.5764101 11.6086 199.384
-3.4358301 11.6026 199.28101
-3.29494 11.595 199.14999
-3.01197 11.5732 198.77499
-2.87062 11.5612 198.569
-2.5876901 11.5324 198.075
-2.4468701 11.5186 197.83701
-2.306 11.5029 197.56799
-2.1660199 11.49 197.34599
-2.0258801 11.4743 197.077
-1.88647 11.4609 196.847
-1.74746 11.4479 196.62399
