# .PCD v0.7 - Point Cloud Data file format
VERSION 0.7
FIELDS x y z
SIZE 4 4 4
TYPE F F F
COUNT 1 1 1
WIDTH 1796
HEIGHT 1
VIEWPOINT 0 0 0 1 0 0 0
POINTS 1796
DATA ascii
11.0324 1.40439 190.39999
11.1694 1.40495 190.476
11.3079 1.40569 190.575
11.4452 1.40626 190.653
11.5879 1.40747 190.817
11.732 1.40883 191.00101
11.8708 1.40952 191.095
12.0067 1.40985 191.14
12.1438 1.41032 191.20399
12.2802 1.4107 191.255
12.4196 1.41141 191.351
12.5575 1.41194 191.423
12.696 1.4125201 191.502
12.8336 1.413 191.56599
12.9737 1.41372 191.66499
13.1116 1.41422 191.731
13.2544 1.41521 191.866
13.3948 1.41593 191.963
13.5433 1.41748 192.174
13.8373 1.4202 192.54201
13.9794 1.42102 192.653
14.1223 1.4219 192.77299
14.2598 1.42223 192.81799
14.4026 1.42307 192.93201
14.5454 1.42391 193.04601
14.6883 1.4247299 193.157
14.8334 1.42576 193.297
14.9768 1.4266 193.411
15.1239 1.42778 193.57001
15.2672 1.42857 193.67799
15.4193 1.4301701 193.895
15.5666 1.4313101 194.049
15.7191 1.4328901 194.263
15.8743 1.4347 194.508
16.021099 1.43572 194.647
16.1726 1.43714 194.84
16.322901 1.43843 195.01401
16.4732 1.43971 195.187
16.636 1.44204 195.504
16.8008 1.4445 195.838
16.9753 1.44776 196.27901
17.1719 1.45284 196.968
17.359501 1.45707 197.541
-5.45964 1.55299 192.379
-5.32692 1.55334 192.423
-5.1964798 1.55439 192.55299
-5.0681801 1.55616 192.772
-4.9380698 1.5574501 192.931
-4.8077502 1.55874 193.092
-4.6746101 1.55917 193.145
-4.54105 1.55948 193.183
-4.14398 1.56188 193.481
-4.0117302 1.56283 193.59801
-3.74634 1.56457 193.814
-3.6124799 1.56503 193.871
-3.4778199 1.56517 193.888
-3.20608 1.56429 193.77901
-3.0704899 1.5639499 193.73599
-2.93417 1.56317 193.64
-2.7983699 1.56261 193.571
-2.6623099 1.56185 193.47701
-2.52632 1.5610501 193.377
-2.3903999 1.5602 193.272
-2.2547901 1.55946 193.181
-2.1193099 1.55873 193.09
-1.98396 1.558 193
-1.8480099 1.5566601 192.83299
-1.71216 1.5552 192.653
-1.44042 1.55142 192.18401
-1.30504 1.54953 191.95
-1.1700701 1.54775 191.73
-0.90143001 1.54484 191.37
-0.63409603 1.54268 191.10201
-0.50075197 1.54173 190.98399
-0.36755601 1.54072 190.85899
-0.234547 1.53978 190.743
-0.101705 1.5389301 190.638
0.030991601 1.53813 190.539
0.16355699 1.5374 190.448
0.29600701 1.53672 190.364
0.428269 1.53579 190.248
0.56036001 1.53483 190.129
0.69236398 1.53404 190.032
0.82422298 1.53324 189.93201
0.955841 1.53227 189.812
1.0874701 1.53155 189.724
1.21918 1.5311 189.66701
1.35065 1.53045 189.58701
1.48191 1.5297101 189.495
1.61322 1.52913 189.424
1.7444201 1.52855 189.351
1.87485 1.52742 189.211
2.00649 1.52736 189.20399
2.13785 1.5271 189.172
2.26897 1.52672 189.12399
2.39996 1.5262901 189.07201
2.5309999 1.5259399 189.028
2.66166 1.5254101 188.96201
2.79268 1.52512 188.927
2.9240301 1.52503 188.91499
3.0555699 1.52504 188.91701
3.1866701 1.52484 188.892
3.3189001 1.52518 188.93401
3.45136 1.5255899 188.985
3.58428 1.52617 189.05701
3.71666 1.52649 189.09599
3.8491399 1.5268199 189.13699
3.9797699 1.52642 189.088
4.1108098 1.5262001 189.061
4.2420902 1.52608 189.04601
4.37361 1.52605 189.04201
4.5046802 1.52587 189.02
4.63621 1.5258501 189.01801
4.7694001 1.52637 189.08099
4.9015098 1.52652 189.10001
5.0331602 1.52652 189.10001
5.1657 1.52678 189.133
5.2985201 1.52712 189.174
5.4320002 1.52762 189.23599
5.56779 1.52873 189.37399
5.7002501 1.5289 189.395
5.8340902 1.52942 189.46001
5.96667 1.5296 189.481
6.0984502 1.52957 189.47701
6.23037 1.52957 189.478
6.36304 1.52975 189.50101
6.49368 1.5294501 189.463
6.6252799 1.52938 189.455
6.7558398 1.52908 189.418
6.8848701 1.52845 189.34
7.0152702 1.52815 189.302
7.1455402 1.52782 189.26199
7.2762799 1.5276099 189.235
7.4095502 1.52793 189.274
7.54106 1.52788 189.26801
7.6715899 1.52763 189.23801
7.8063402 1.5282201 189.311
7.94168 1.5289 189.395
8.2120895 1.53016 189.55
8.3483696 1.53095 189.649
8.4868803 1.53212 189.79401
8.6243801 1.53308 189.912
8.7617598 1.53398 190.024
8.9009199 1.53517 190.17101
9.1716604 1.53617 190.295
9.3042898 1.53619 190.298
9.6991596 1.53579 190.248
9.8281002 1.5352401 190.17999
9.9586201 1.53495 190.144
10.0902 1.53483 190.129
10.2227 1.53485 190.132
10.3571 1.5351599 190.17
10.4907 1.5353301 190.19099
10.6248 1.53558 190.22301
10.7603 1.53601 190.276
10.8988 1.53686 190.381
11.0359 1.5375 190.46001
11.1744 1.5383101 190.561
11.3131 1.53913 190.662
11.451 1.53984 190.75
11.5961 1.5414701 190.952
11.7389 1.54277 191.11301
11.877 1.54343 191.194
12.0121 1.54368 191.226
12.1479 1.54403 191.269
12.2827 1.54422 191.293
12.4228 1.54509 191.39999
12.5602 1.54561 191.465
12.6984 1.5462 191.53799
12.8374 1.54688 191.62199
12.9754 1.54743 191.69
13.1141 1.54805 191.767
13.2574 1.5492001 191.909
13.3972 1.5499099 191.998
13.5489 1.55198 192.254
13.6958 1.55347 192.438
13.8446 1.55513 192.644
13.9875 1.5561 192.765
14.1276 1.55676 192.84599
14.2675 1.55738 192.923
14.4091 1.55817 193.02
14.5526 1.55914 193.14101
14.6948 1.55997 193.243
14.8382 1.56089 193.358
14.9837 1.56203 193.49899
15.1294 1.56317 193.64
15.2735 1.5641201 193.758
15.4282 1.56613 194.007
15.5732 1.56714 194.132
15.7253 1.56883 194.341
15.8845 1.57119 194.634
16.0396 1.57311 194.87199
16.1835 1.57391 194.97099
16.333401 1.57528 195.14
16.4858 1.57687 195.33701
16.646299 1.57919 195.62399
16.8123 1.58199 195.972
17.002399 1.58701 196.593
17.202499 1.59286 197.31799
17.3804 1.59658 197.77901
-5.46278 1.68796 192.49001
-5.3299799 1.6883399 192.533
-5.2003899 1.68978 192.698
-5.0702701 1.69113 192.851
-4.9398999 1.6924599 193.00301
-4.8087001 1.69357 193.13
-4.6764798 1.69438 193.222
-4.5427599 1.69467 193.256
-4.4103198 1.69548 193.347
-4.27777 1.69629 193.44
-3.8821299 1.69995 193.85699
-3.7479501 1.7003 193.897
-3.61362 1.70061 193.93201
-3.4793899 1.7009799 193.97501
-3.34326 1.70043 193.912
-3.07213 1.69979 193.839
-2.9353399 1.69873 193.718
-2.79953 1.69815 193.651
-2.6633999 1.6973 193.556
-2.52742 1.69648 193.461
-2.3917301 1.69576 193.38
-2.25562 1.69464 193.25101
-2.12009 1.69384 193.161
-1.9849499 1.69327 193.09599
-1.8496 1.69242 192.99899
-1.5779999 1.68934 192.647
-1.44172 1.6868 192.358
-1.17133 1.6831 191.936
-1.0363899 1.6809601 191.692
-0.76792097 1.67751 191.298
-0.634184 1.67602 191.129
-0.50089699 1.67524 191.03999
-0.367706 1.67434 190.937
-0.23464 1.6733 190.81799
-0.101739 1.67228 190.702
0.163637 1.6708601 190.53999
0.29613101 1.67001 190.44299
0.42844301 1.66898 190.326
0.560601 1.66798 190.211
0.69262803 1.66704 190.104
0.82459497 1.66628 190.01801
0.95624298 1.66518 189.892
1.08796 1.66445 189.808
1.21972 1.66394 189.75101
1.3512501 1.66325 189.672
1.48261 1.66248 189.584
1.6138901 1.66176 189.502
1.74512 1.6611 189.427
1.87576 1.66001 189.30299
2.00741 1.65991 189.291
2.1387401 1.65956 189.25101
2.2702799 1.6594 189.23399
2.4007101 1.6585 189.131
2.5316 1.658 189.073
2.7939301 1.65746 189.011
2.9251001 1.65722 188.98399
3.05689 1.6573499 188.99899
3.18821 1.65721 188.98399
3.3215599 1.6581 189.08501
3.58792 1.6595401 189.24899
3.7197599 1.65958 189.254
3.8510599 1.65939 189.23199
3.9816999 1.6589299 189.17999
4.1127 1.65865 189.147
4.24401 1.65851 189.131
4.3755102 1.65845 189.12399
4.5064101 1.65816 189.092
4.63832 1.65826 189.104
4.7711101 1.6586601 189.149
4.9031701 1.65879 189.164
5.0349302 1.65882 189.16701
5.1681399 1.6593 189.222
5.30093 1.65964 189.25999
5.4349899 1.66034 189.34
5.5701699 1.66135 189.455
5.7020798 1.66135 189.45599
5.8358998 1.6619 189.51801
5.9688201 1.6621799 189.55
6.10005 1.66198 189.52699
6.2318001 1.66193 189.521
6.3638 1.66194 189.52299
6.4946299 1.66166 189.491
6.6258402 1.66149 189.47099
6.7564902 1.66118 189.436
6.8857999 1.66056 189.36501
7.1473498 1.6600699 189.30901
7.2783499 1.6598901 189.289
7.4113202 1.6601599 189.32001
7.5433402 1.66021 189.325
7.6742601 1.66002 189.304
7.8089299 1.66063 189.37399
7.9450402 1.66153 189.476
8.0805597 1.6622699 189.56
8.2173405 1.66325 189.672
8.3540802 1.66418 189.778
8.4945803 1.66583 189.966
8.6307402 1.66658 190.052
8.76752 1.66743 190.149
8.9064999 1.6686701 190.28999
9.0407696 1.669 190.328
9.1746597 1.66926 190.35699
9.3074102 1.6693 190.362
9.4391499 1.66916 190.34599
9.5714197 1.66912 190.341
9.7013903 1.66868 190.29201
9.8305902 1.66813 190.228
9.9609699 1.66778 190.189
10.0931 1.66773 190.18401
10.2259 1.6677999 190.192
10.36 1.66809 190.224
10.494 1.66834 190.252
10.6279 1.66855 190.27699
10.7636 1.66906 190.33501
11.04 1.67079 190.532
11.1787 1.67169 190.63499
11.3186 1.67276 190.757
11.4589 1.6738501 190.881
11.6049 1.67574 191.097
11.7451 1.67676 191.213
11.8812 1.6771801 191.261
12.0162 1.6774499 191.291
12.1514 1.67773 191.323
12.2853 1.67783 191.334
12.4257 1.6788 191.44501
12.5636 1.67942 191.51601
12.7009 1.67994 191.575
12.8404 1.68075 191.668
12.9777 1.68125 191.72501
13.1192 1.6822701 191.841
13.2613 1.68336 191.965
13.4011 1.68414 192.054
13.5553 1.68669 192.345
13.7012 1.68817 192.51401
13.8492 1.68987 192.70799
13.9951 1.69129 192.87
14.1355 1.6920201 192.95399
14.2734 1.69245 193.002
14.4149 1.69329 193.09801
14.5595 1.69447 193.233
14.7013 1.69532 193.32899
14.8437 1.6962 193.42999
14.9892 1.69743 193.57001
15.1341 1.69858 193.701
15.2834 1.7001801 193.883
15.5861 1.70376 194.29201
15.746 1.70643 194.597
15.8978 1.70818 194.79601
16.0508 1.71004 195.008
16.1957 1.711 195.118
16.344299 1.71234 195.27
16.494801 1.71386 195.444
16.656601 1.7165101 195.746
16.813101 1.71858 195.98199
17.0259 1.72632 196.86501
17.3941 1.73571 197.936
-5.3340101 1.82382 192.679
-5.2040701 1.82529 192.834
-5.07304 1.82645 192.95599
-4.9414601 1.8274699 193.064
-4.8106599 1.82883 193.20799
-4.6789999 1.82995 193.326
-4.54565 1.8304501 193.379
-4.4125099 1.8310601 193.44299
-4.2804098 1.83216 193.55901
-4.1498799 1.83402 193.756
-4.0158501 1.83441 193.798
-3.8836401 1.83569 193.93201
-3.7497699 1.8362499 193.991
-3.6146901 1.83623 193.99001
-3.4806499 1.83676 194.04601
-3.3447399 1.8363 193.99699
-3.20941 1.8361501 193.981
-3.0733199 1.83552 193.91499
-2.9370401 1.83472 193.83
-2.8009801 1.83398 193.752
-2.6648099 1.8330899 193.658
-2.52865 1.8321199 193.55499
-2.3930099 1.83143 193.483
-2.12115 1.8293 193.258
-1.98592 1.82866 193.19
-1.8511 1.82833 193.155
-1.71474 1.8263201 192.942
-1.44349 1.82301 192.593
-1.30734 1.82012 192.28799
-0.90279502 1.81417 191.66
-0.768547 1.81223 191.45399
-0.50115103 1.80922 191.136
-0.367863 1.8081 191.01801
-0.101787 1.8059601 190.79201
0.031015599 1.80496 190.686
0.163708 1.80437 190.62399
0.29624799 1.80337 190.519
0.42864099 1.80238 190.414
0.560853 1.80127 190.297
0.69298398 1.80038 190.202
0.82499403 1.79951 190.11
0.956716 1.79834 189.98599
1.08843 1.7974401 189.892
1.22017 1.79677 189.821
1.35171 1.7959599 189.73599
1.48324 1.79529 189.66499
1.61444 1.7943701 189.567
1.7457401 1.79368 189.495
1.87683 1.79289 189.411
2.0084701 1.79269 189.39
2.1398001 1.7922699 189.345
2.2706399 1.7915 189.26401
2.4015999 1.79091 189.201
2.53303 1.79071 189.17999
2.6643901 1.79048 189.15601
2.79564 1.7902 189.127
2.92682 1.78991 189.09599
3.0587001 1.79005 189.11099
3.1907699 1.79028 189.136
3.3241701 1.7912101 189.23399
3.4579401 1.7922699 189.34599
3.5903201 1.79255 189.375
3.7214301 1.7922 189.339
3.8526399 1.79193 189.30901
3.9839399 1.79171 189.286
4.1147099 1.79127 189.24001
4.24613 1.7911299 189.226
4.3771601 1.79085 189.19501
4.5081701 1.79057 189.166
4.6403298 1.79075 189.185
4.7729702 1.79111 189.22301
4.90483 1.79116 189.228
5.0370402 1.79133 189.246
5.1708498 1.79204 189.321
5.30374 1.79241 189.36
5.4389601 1.79353 189.479
5.57302 1.79422 189.552
5.7048702 1.79419 189.548
5.8380098 1.7945499 189.58701
5.9706101 1.79474 189.60699
6.1015601 1.79444 189.57401
6.2329402 1.79426 189.556
6.3649998 1.7942899 189.55901
6.4960299 1.79403 189.532
6.6266699 1.79368 189.495
6.7571998 1.79331 189.45599
6.8872499 1.79284 189.405
7.0189099 1.79278 189.39999
7.1497698 1.79254 189.37399
7.6771102 1.79254 189.37399
7.81145 1.79311 189.435
7.9495702 1.79452 189.584
8.0854998 1.7954 189.67599
8.22437 1.79689 189.834
8.3613596 1.79793 189.944
8.5000296 1.7993 190.088
8.6363001 1.80012 190.174
8.77314 1.80103 190.271
8.9123602 1.8024 190.416
9.0457296 1.80256 190.433
9.1781902 1.8025399 190.42999
9.31038 1.80247 190.423
9.4422703 1.80234 190.409
9.57376 1.80214 190.388
9.7039404 1.8017 190.342
9.8333902 1.80114 190.282
9.9638395 1.8007801 190.244
10.0958 1.8006999 190.23599
10.2284 1.80072 190.23801
10.3624 1.80099 190.26601
10.4974 1.80142 190.312
10.6301 1.80146 190.317
10.9053 1.80316 190.496
11.0446 1.80425 190.61099
11.1822 1.80504 190.69501
11.3226 1.80626 190.823
11.4658 1.80788 190.995
11.6122 1.80998 191.217
11.7499 1.81069 191.29201
11.886 1.8111399 191.339
12.0203 1.8113101 191.35699
12.155 1.81152 191.379
12.2898 1.8117599 191.40401
12.4298 1.81275 191.509
12.5681 1.81346 191.584
12.7048 1.81394 191.63499
12.8443 1.81479 191.72501
12.9815 1.81532 191.78
13.1242 1.81659 191.91499
13.2659 1.8177 192.032
13.4073 1.81875 192.14301
13.5591 1.82117 192.39799
13.7094 1.82335 192.629
13.8563 1.82503 192.80701
14.0023 1.82657 192.96899
14.1429 1.8273799 193.05499
14.2801 1.8277299 193.092
14.4219 1.82867 193.19099
14.5648 1.82973 193.30299
14.7078 1.83078 193.414
14.8506 1.83179 193.52
14.9965 1.83315 193.66499
15.1432 1.8346 193.817
15.2941 1.8365099 194.019
15.4491 1.8388799 194.27
15.6044 1.84124 194.519
15.7643 1.84412 194.823
15.9149 1.84585 195.006
16.062599 1.8472199 195.151
16.2097 1.8485 195.286
16.356701 1.84975 195.418
16.504 1.85102 195.552
16.667801 1.85409 195.877
16.8333 1.8573101 196.217
17.0536 1.86647 197.18401
17.254 1.87333 197.909
17.402599 1.87449 198.032
-5.4674301 1.95777 192.65401
-5.3380899 1.95953 192.826
-5.20787 1.96104 192.97501
-5.0766201 1.96223 193.093
-4.94449 1.96314 193.18201
-4.8134799 1.96456 193.32201
-4.6816502 1.9657201 193.435
-4.5482202 1.9662499 193.48801
-4.4151402 1.96697 193.55901
-4.2832198 1.9682699 193.686
-4.1516399 1.96981 193.839
-4.0179801 1.97044 193.89999
-3.8854301 1.97167 194.022
-3.75143 1.97224 194.077
-3.6164501 1.9723099 194.084
-3.4821 1.9727401 194.12601
-3.3461599 1.97227 194.08
-3.2104101 1.9718699 194.041
-3.0743599 1.9712501 193.98
-2.8024199 1.96995 193.85201
-2.6660099 1.96887 193.746
-2.53003 1.9680001 193.661
-2.39411 1.9671 193.571
-2.25793 1.96586 193.45
-1.9871 1.96439 193.30499
-1.85182 1.96364 193.231
-1.71577 1.96189 193.058
-1.5799299 1.96009 192.882
-1.44453 1.95856 192.73199
-1.30888 1.95636 192.515
-1.1735801 1.95423 192.30499
-1.03829 1.95155 192.04201
-0.769355 1.94763 191.65601
-0.63527101 1.9456 191.45599
-0.50155801 1.94393 191.29201
-0.36812499 1.94254 191.15401
-0.234898 1.94126 191.02901
-0.101846 1.93997 190.90199
0.031034101 1.93893 190.8
0.163784 1.93803 190.711
0.29640499 1.9371001 190.62
0.42883801 1.9359 190.50101
0.56116802 1.9349 190.403
0.69332999 1.93382 190.297
0.82533997 1.93273 190.19
0.95711201 1.93146 190.065
1.08904 1.9307899 189.998
1.22078 1.92995 189.91499
1.3523901 1.92909 189.83099
1.48391 1.92827 189.75101
1.61522 1.92733 189.658
1.74655 1.92656 189.58299
1.87792 1.92593 189.521
2.0095301 1.92562 189.49001
2.14082 1.92507 189.435
2.2718101 1.92431 189.36099
2.4033501 1.92408 189.339
2.5347199 1.92375 189.306
2.6656899 1.92317 189.248
2.7971599 1.9229701 189.229
2.92858 1.92277 189.209
3.0608499 1.92312 189.244
3.1938 1.92384 189.315
3.32672 1.9245 189.38
3.5915301 1.92511 189.439
3.7225101 1.9246401 189.394
3.8538799 1.9244 189.37
3.9853899 1.92425 189.355
4.11655 1.9239399 189.325
4.2476201 1.92361 189.29201
4.3787298 1.9233201 189.26401
4.50985 1.92305 189.237
4.6420498 1.9232399 189.255
4.7745099 1.92353 189.284
4.9063902 1.92357 189.28799
5.03967 1.92414 189.345
5.1739502 1.92506 189.435
5.3074799 1.92566 189.494
5.4419398 1.92656 189.58299
5.5752101 1.9270101 189.62601
5.7070699 1.92696 189.62199
5.8398299 1.92721 189.646
5.9724102 1.92739 189.664
6.1027002 1.9268399 189.60899
6.2333102 1.92641 189.567
6.3660698 1.92665 189.591
6.4966202 1.9262201 189.549
6.6275301 1.92592 189.519
6.7579799 1.9255 189.478
6.8878698 1.92493 189.422
7.0199599 1.925 189.42799
7.1515098 1.9249099 189.42
7.2836699 1.9249901 189.427
7.4161301 1.92514 189.442
7.5487599 1.92533 189.461
7.68115 1.92546 189.474
7.8166699 1.92635 189.561
7.9540801 1.92767 189.69099
8.0915003 1.92895 189.817
8.2308598 1.93064 189.98399
8.3678598 1.93174 190.092
8.5042696 1.93266 190.183
8.6402102 1.93345 190.261
8.7778797 1.9346 190.37399
8.9174995 1.9361399 190.52499
9.0501699 1.93615 190.526
9.1814499 1.9358701 190.498
9.3118896 1.93541 190.453
9.4441996 1.93536 190.448
9.5760603 1.93521 190.43401
9.7061501 1.93472 190.38499
9.8354797 1.93409 190.323
9.9656296 1.93363 190.278
10.0976 1.93354 190.269
10.2303 1.93358 190.27299
10.3645 1.9339 190.30499
10.6331 1.93457 190.371
10.772 1.93572 190.48399
10.9096 1.9366 190.57001
11.0484 1.93768 190.67599
11.328 1.9401 190.91499
11.4732 1.94217 191.119
11.6181 1.94416 191.314
11.7556 1.94487 191.384
11.891 1.94523 191.42
12.0239 1.94517 191.414
12.1583 1.9453501 191.43201
12.2956 1.94599 191.494
12.4343 1.94683 191.577
12.5723 1.94756 191.64799
12.7085 1.9479899 191.69099
12.8474 1.94881 191.772
12.9863 1.94962 191.851
13.1264 1.95059 191.94701
13.2693 1.95196 192.082
13.4137 1.9535201 192.235
13.5636 1.95583 192.463
13.7202 1.95907 192.78101
13.866 1.9607 192.94099
14.0097 1.96201 193.071
14.1495 1.96277 193.145
14.2882 1.96334 193.202
14.4292 1.96424 193.28999
14.715 1.96645 193.508
14.8584 1.96761 193.62199
15.004 1.96903 193.76199
15.1509 1.97059 193.91499
15.304 1.9729199 194.145
15.4586 1.97541 194.39
15.6257 1.97944 194.786
15.7798 1.98176 195.01401
15.9285 1.9833699 195.172
16.072701 1.9844 195.274
16.2181 1.9855601 195.388
16.363501 1.9867001 195.5
16.5121 1.9881999 195.64799
16.8783 1.99932 196.742
17.094999 2.0086801 197.66299
17.265499 2.0125201 198.041
-5.4710002 2.0933299 192.78
-5.3417001 2.0952499 192.957
-5.2114301 2.09688 193.10699
-5.0798998 2.0980799 193.218
-4.9475498 2.099 193.302
-4.8157601 2.10021 193.414
-4.68396 2.10149 193.53101
-4.55128 2.1024301 193.618
-4.4184699 2.10337 193.705
-4.28688 2.10497 193.85201
-3.8875 2.10794 194.125
-3.75314 2.1083801 194.166
-3.61847 2.10867 194.192
-3.4836199 2.10888 194.211
-3.3475101 2.1083 194.158
-3.2116101 2.10782 194.114
-3.07552 2.1071601 194.054
-2.9393001 2.1063499 193.979
-2.6670899 2.10467 193.82401
-2.5309 2.1036201 193.72701
-2.3948901 2.1026101 193.63499
-2.25895 2.1015601 193.537
-2.1236801 2.1010201 193.48801
-1.85233 2.09881 193.284
-1.7165101 2.09726 193.142
-1.58064 2.0953801 192.96899
-1.4449 2.0933499 192.782
-1.31037 2.09284 192.73399
-1.0395 2.08775 192.26601
-0.90452498 2.08515 192.02699
-0.63589901 2.0810101 191.645
-0.50203198 2.0791399 191.47301
-0.36842099 2.0773499 191.308
-0.235072 2.07584 191.17
-0.101919 2.07443 191.039
0.163865 2.0718901 190.80499
0.296547 2.0708599 190.711
0.42905799 2.0696499 190.599
0.5614 2.0683801 190.48199
0.825656 2.066 190.263
0.95753402 2.06476 190.149
1.08955 2.06409 190.08701
1.22158 2.06358 190.03999
1.35314 2.0624499 189.936
1.61628 2.06078 189.782
1.74744 2.05966 189.679
1.87884 2.0589499 189.61301
2.01072 2.05883 189.603
2.14206 2.0581999 189.545
2.27317 2.05744 189.47501
2.40432 2.0567999 189.41499
2.5357101 2.0564101 189.38
2.66749 2.05637 189.37601
2.80024 2.05704 189.438
3.1960599 2.0571599 189.44901
3.3287899 2.0576899 189.49699
3.4616699 2.05826 189.55
3.5929301 2.0578599 189.513
3.72387 2.0573101 189.463
3.8552999 2.05707 189.44
3.9863901 2.0566599 189.40199
4.1180201 2.05654 189.392
4.2491899 2.0562201 189.362
4.3803601 2.0559101 189.334
4.9085398 2.0563099 189.371
5.0430598 2.05741 189.472
5.1771102 2.05826 189.55099
5.3102698 2.0587299 189.593
5.4447498 2.05967 189.67999
5.57724 2.05984 189.69501
5.7094102 2.05988 189.69901
5.8415098 2.0599 189.701
5.9735498 2.05989 189.7
6.1038198 2.0592799 189.644
6.2349501 2.05899 189.617
6.3674598 2.05915 189.632
6.4976501 2.0585799 189.57899
6.6287599 2.05831 189.554
6.7588401 2.05773 189.502
6.8892798 2.0572901 189.461
7.0214601 2.05738 189.46899
7.1533599 2.05738 189.46899
7.2858601 2.05755 189.48399
7.4191999 2.05794 189.521
7.5520802 2.0581999 189.545
7.6870298 2.059 189.619
7.8226299 2.0599501 189.70599
7.9607601 2.0615201 189.85001
8.0990896 2.0630901 189.995
8.2365398 2.0643899 190.11501
8.3736601 2.0655701 190.22301
8.51015 2.06656 190.314
8.64501 2.0671201 190.366
8.9219198 2.06987 190.62
9.1838102 2.0690801 190.547
9.3139896 2.0685401 190.496
9.4463501 2.06848 190.491
9.5781298 2.0683 190.47501
9.7073803 2.06759 190.409
9.83745 2.06707 190.36099
10.0992 2.06638 190.298
10.2324 2.06653 190.312
10.3663 2.0668099 190.338
10.5032 2.0676799 190.41701
10.6365 2.0678301 190.431
10.7749 2.0689399 190.534
10.914 2.0701699 190.647
11.0522 2.0711999 190.742
11.1928 2.07266 190.87601
11.3367 2.0746701 191.062
11.4829 2.07705 191.28101
11.6239 2.07846 191.41
11.7608 2.0790999 191.46899
11.895 2.0792601 191.48399
12.0276 2.0791399 191.47301
12.1623 2.07938 191.495
12.3012 2.0803299 191.58299
12.4387 2.0810201 191.646
12.5766 2.0817499 191.713
12.7126 2.08216 191.752
12.8511 2.0829899 191.828
13.1296 2.0848 191.994
13.2744 2.08655 192.15601
13.4208 2.08851 192.336
13.5722 2.0912199 192.58501
13.7289 2.0946701 192.903
13.8745 2.09637 193.06
14.0162 2.09746 193.16
14.157 2.0984099 193.248
14.2975 2.0992801 193.327
14.4371 2.1000099 193.395
14.5808 2.10132 193.515
14.7236 2.1024699 193.62199
14.8669 2.1036699 193.73199
15.0121 2.1051199 193.866
15.1604 2.1069801 194.037
15.3129 2.10937 194.257
15.4775 2.11339 194.627
15.6441 2.11759 195.01401
15.7947 2.11959 195.198
15.9399 2.1208301 195.312
16.082199 2.12166 195.38901
16.2253 2.1225901 195.474
16.3708 2.1238101 195.58701
16.5226 2.1258299 195.77299
16.674299 2.1278 195.95399
16.902 2.1393499 197.01801
17.1273 2.1504099 198.037
17.275299 2.15168 198.153
-5.47402 2.2288401 192.886
-5.3452301 2.2311201 193.084
-5.2144799 2.2326901 193.22
-5.0826502 2.23387 193.32201
-4.95049 2.2349701 193.41701
-4.8183599 2.23613 193.51801
-4.6859999 2.2372601 193.61501
-4.5543699 2.2388101 193.75
-4.4214401 2.2398 193.83501
-4.1567602 2.2426 194.077
-4.0232902 2.24351 194.157
-3.88941 2.2442501 194.22
-3.7548101 2.2446201 194.252
-3.62046 2.2451601 194.299
-3.48527 2.2452099 194.30299
-3.3491001 2.2446001 194.25101
-3.0768099 2.2432599 194.13499
-2.94047 2.2423501 194.056
-2.80481 2.2419 194.017
-2.66781 2.2402699 193.87601
-2.5319099 2.23945 193.80499
-2.3959999 2.2385199 193.72501
-2.2599199 2.2373199 193.62
-2.1247001 2.23686 193.58099
-1.9891 2.23593 193.5
-1.7175699 2.23316 193.261
-1.44576 2.22895 192.896
-1.31054 2.22736 192.758
-1.1756099 2.22596 192.63699
-1.04018 2.22314 192.39301
-0.77067399 2.21841 191.98399
-0.636388 2.2162001 191.793
-0.502446 2.21433 191.631
-0.368756 2.21261 191.48199
-0.235264 2.2108099 191.326
-0.101993 2.20909 191.177
0.031070899 2.20734 191.026
0.163936 2.20575 190.88901
0.29668099 2.2047 190.797
0.56163102 2.2019601 190.561
0.69392502 2.20081 190.46001
0.82600898 2.19946 190.34399
0.95795602 2.1981699 190.233
1.0901901 2.1977701 190.198
1.35365 2.19558 190.008
1.48544 2.19487 189.946
1.61698 2.1939299 189.86501
1.74826 2.1928 189.76801
1.87977 2.1921 189.707
2.01173 2.1919899 189.69701
2.1431301 2.1913199 189.64
2.2744401 2.19063 189.58
2.4060199 2.19028 189.549
2.53847 2.1907101 189.586
2.6705101 2.1907499 189.591
2.8023901 2.19067 189.58299
2.93415 2.19051 189.57001
3.0656099 2.19015 189.53799
3.19787 2.1903601 189.556
3.3304501 2.1907699 189.592
3.4625499 2.19084 189.59801
3.5938001 2.1903901 189.55901
3.72505 2.18997 189.52299
3.8566 2.18975 189.504
3.9875901 2.18924 189.46001
4.1192098 2.18909 189.44701
4.25038 2.18873 189.41499
4.3818698 2.18854 189.399
4.51263 2.18801 189.353
4.6450701 2.1882999 189.379
4.7776699 2.1886499 189.409
4.9108801 2.18926 189.461
5.0462399 2.1907599 189.591
5.1803002 2.1916399 189.66701
5.3125 2.19171 189.673
5.4463301 2.19243 189.735
5.5792098 2.19274 189.763
5.7115798 2.1928401 189.771
5.8425698 2.19242 189.735
5.9748201 2.1924901 189.74001
6.10534 2.19192 189.69099
6.2369299 2.1917601 189.677
6.3690701 2.1917901 189.67999
6.4990902 2.1911099 189.621
6.6305299 2.1909201 189.605
6.7598801 2.1900599 189.53101
6.8908 2.1897399 189.50301
7.0237498 2.1900599 189.53101
7.1560702 2.1901801 189.53999
7.28794 2.19015 189.539
7.4225602 2.1909399 189.60699
7.5566502 2.19155 189.659
7.69314 2.1928201 189.769
7.8296299 2.1940501 189.87601
7.9686799 2.19594 190.039
8.2420998 2.1982901 190.243
8.3796501 2.19964 190.35899
8.51474 2.2003 190.41701
8.7909899 2.20309 190.658
8.9256496 2.2035699 190.69901
9.0546999 2.2026701 190.62199
9.1856203 2.20224 190.58501
9.3164701 2.2018099 190.547
9.4484301 2.2016499 190.533
9.5795002 2.2012899 190.502
9.7086296 2.2005 190.43401
9.8388901 2.19998 190.38901
9.9692802 2.1995101 190.34801
10.2344 2.1995299 190.35001
10.3689 2.19995 190.38699
10.5049 2.20067 190.44901
10.6394 2.2010701 190.483
10.7767 2.2020199 190.56599
10.9176 2.2037001 190.711
11.0555 2.20472 190.799
11.1977 2.2065699 190.959
11.3449 2.2093401 191.19901
11.4911 2.2118599 191.41701
11.6292 2.21279 191.49699
11.7643 2.21312 191.526
11.8998 2.2135301 191.561
12.0315 2.2132199 191.535
12.1659 2.2134099 191.55099
12.3052 2.2144899 191.645
12.4428 2.21523 191.709
12.5805 2.21597 191.77299
12.7168 2.21647 191.81599
12.8551 2.2172899 191.88699
12.9962 2.21856 191.99699
13.135 2.21943 192.07201
13.4294 2.2239101 192.46001
13.5868 2.2277501 192.79201
13.7376 2.2304399 193.02499
13.8811 2.2319 193.15199
14.024 2.2332399 193.26801
14.1627 2.2339101 193.326
14.3042 2.2349899 193.41901
14.4442 2.23581 193.489
14.5868 2.23703 193.595
14.8751 2.2398601 193.84
15.0194 2.24124 193.96001
15.1699 2.24354 194.159
15.3274 2.24681 194.44099
15.5057 2.2530401 194.981
15.6631 2.25616 195.25101
15.808 2.2574501 195.362
15.9506 2.2583899 195.444
16.0924 2.2591901 195.513
16.2353 2.2601399 195.595
16.381399 2.2615099 195.714
16.5343 2.2637899 195.911
16.6922 2.26671 196.164
16.9482 2.2827899 197.556
17.144199 2.2906101 198.23199
17.2805 2.29039 198.213
-5.4769201 2.36444 192.98801
-5.3469701 2.36638 193.147
-5.2175002 2.36865 193.332
-5.0855699 2.36989 193.433
-4.9537501 2.3712499 193.54401
-4.8204098 2.3719299 193.60001
-4.6900601 2.3741701 193.783
-4.42593 2.3772199 194.032
-4.29389 2.3789001 194.16901
-4.1596098 2.37941 194.211
-4.0254002 2.3800001 194.258
-3.8921299 2.3812001 194.356
-3.7569499 2.3812699 194.36301
-3.6228099 2.38204 194.425
-3.4870601 2.3817699 194.403
-3.3504 2.38083 194.326
-3.2142301 2.3801601 194.272
-3.0778201 2.3792601 194.198
-2.94122 2.37813 194.106
-2.8055601 2.3776801 194.069
-2.53269 2.37517 193.864
-2.3967299 2.3741801 193.783
-2.2609601 2.37327 193.709
-1.99014 2.3719299 193.60001
-1.85422 2.3704801 193.481
-1.71859 2.36919 193.37601
-1.58242 2.3668599 193.186
-1.44709 2.36549 193.07401
-1.3113101 2.3630099 192.87199
-1.17598 2.3608799 192.698
-1.04091 2.3587899 192.528
-0.90580398 2.3559899 192.299
-0.77115399 2.3536 192.104
-0.63685203 2.3515 191.93201
-0.50274402 2.34919 191.744
-0.36895001 2.3472099 191.58299
-0.23541699 2.3455901 191.45
0.031086899 2.3415999 191.12399
0.29681 2.3385999 190.88
0.42943999 2.33724 190.76801
0.56188703 2.3357601 190.647
0.69423002 2.3344901 190.54401
0.958251 2.3313899 190.291
1.09065 2.3312399 190.27901
1.22256 2.3301799 190.192
1.35421 2.3288901 190.08701
1.48596 2.32798 190.01199
1.6176 2.32706 189.937
1.74901 2.3259799 189.849
1.88115 2.3259499 189.847
2.0127399 2.32529 189.793
2.1443 2.3246701 189.743
2.27546 2.32372 189.66499
2.40748 2.32371 189.664
2.5392599 2.3234799 189.645
2.8029599 2.32319 189.62199
2.9351799 2.32337 189.636
3.0673299 2.3234601 189.644
3.1997199 2.32374 189.666
3.3320501 2.32394 189.683
3.4637101 2.3236799 189.662
3.59483 2.3230801 189.61301
3.7261901 2.32269 189.58099
3.8573799 2.3222201 189.54201
3.9892499 2.32217 189.539
4.1199298 2.32145 189.48
4.2515202 2.32128 189.466
4.38306 2.32109 189.451
4.5141501 2.3206899 189.41701
4.6468201 2.32109 189.45
4.7790799 2.32127 189.465
4.9128199 2.32214 189.536
5.0496802 2.3243999 189.72099
5.18295 2.32494 189.76401
5.3140898 2.3245201 189.73
5.4488502 2.32566 189.823
5.5802102 2.32533 189.797
5.7128401 2.3255401 189.813
5.8439298 2.32512 189.77901
5.97574 2.325 189.77
6.1068301 2.32461 189.73801
6.2395 2.3248301 189.756
6.3699698 2.32424 189.707
6.5008101 2.3238001 189.67101
6.6320701 2.3235199 189.649
6.7630501 2.3231699 189.62
6.8933401 2.3225901 189.573
7.0275998 2.32335 189.63499
7.1595201 2.3233199 189.632
7.5623899 2.3254199 189.80299
7.6971698 2.32622 189.869
7.8351002 2.32793 190.008
8.1107302 2.33111 190.26801
8.2472601 2.3322599 190.362
8.3828297 2.3331101 190.43201
8.6570396 2.3355601 190.631
8.7939501 2.3366699 190.722
8.9267902 2.3366899 190.724
9.05618 2.33582 190.653
9.1873903 2.3354399 190.621
9.3188 2.3351099 190.595
9.4513502 2.3350799 190.592
9.5801697 2.3341401 190.515
9.7098999 2.3334401 190.459
9.8414297 2.33319 190.438
9.9714804 2.3326001 190.39
10.1039 2.3325801 190.388
10.2379 2.3329101 190.41499
10.3715 2.3331499 190.435
10.5072 2.3338301 190.49001
10.643 2.3345399 190.548
10.7817 2.33585 190.655
11.0592 2.3383999 190.86301
11.2033 2.34074 191.054
11.3542 2.34443 191.355
11.496 2.34619 191.49899
11.6324 2.3468101 191.549
11.7687 2.3474 191.597
11.9031 2.3476 191.614
12.0347 2.34726 191.586
12.1702 2.3476601 191.619
12.3086 2.3486099 191.696
12.4481 2.3497601 191.78999
12.5866 2.3506899 191.867
12.8609 2.352 191.974
13.0032 2.35357 192.101
13.1401 2.35413 192.147
13.2917 2.3573101 192.40601
13.6011 2.3645101 192.994
13.7474 2.36657 193.162
13.891 2.36814 193.28999
14.0308 2.36902 193.362
14.1704 2.3698599 193.431
14.3104 2.3707299 193.502
14.4502 2.3715701 193.571
14.5957 2.3733201 193.714
14.7385 2.3745899 193.817
14.8817 2.3759201 193.92599
15.1788 2.3801701 194.272
15.3487 2.38555 194.71201
15.5278 2.3922701 195.25999
15.6738 2.39379 195.384
15.8188 2.3951499 195.496
15.9612 2.3961101 195.57401
16.102301 2.3968401 195.633
16.244301 2.3977001 195.703
16.388901 2.3989201 195.80299
16.533899 2.4001801 195.90601
17.149 2.4293699 198.28799
-5.47964 2.5000999 193.084
-5.35039 2.5025201 193.271
-5.22122 2.50509 193.47
-5.0886998 2.50616 193.552
-4.9583998 2.50841 193.726
-4.8245201 2.50892 193.765
-4.5615401 2.51266 194.054
-4.4296098 2.5144601 194.19299
-4.2960501 2.5154099 194.267
-3.8947501 2.51827 194.487
-3.48823 2.5180199 194.468
-3.3514099 2.5169401 194.38499
-3.2151501 2.5162001 194.328
-3.07864 2.5151999 194.25
-2.94223 2.51419 194.172
-2.8063099 2.51352 194.121
-2.6698401 2.51226 194.024
-2.53368 2.5111799 193.94
-2.39767 2.5101399 193.85899
-2.2620001 2.5093501 193.799
-2.1268301 2.5090499 193.77499
-1.85541 2.50685 193.606
-1.71962 2.5053799 193.492
-1.5835 2.50313 193.31799
-1.44813 2.50176 193.21201
-1.31196 2.49858 192.967
-1.04119 2.4935601 192.57899
-0.90616202 2.4909101 192.37399
-0.77136701 2.48809 192.157
-0.63705498 2.48598 191.994
-0.50287598 2.4834001 191.795
-0.369039 2.4812601 191.629
-0.235487 2.4796901 191.508
-0.102085 2.4776299 191.349
0.031099301 2.4757099 191.201
0.164097 2.4741001 191.076
0.42963001 2.4712 190.853
0.562132 2.46963 190.731
0.69444299 2.4679699 190.603
0.82652903 2.4661701 190.464
0.95862901 2.46491 190.366
1.09103 2.4646201 190.34399
1.22295 2.46345 190.254
1.35472 2.46222 190.159
1.48647 2.46117 190.078
1.61813 2.46017 190
1.7496099 2.45906 189.914
1.88176 2.4589801 189.908
2.0134699 2.45838 189.862
2.1452301 2.4579 189.825
2.2767601 2.4572401 189.774
2.4087999 2.45716 189.76801
2.54024 2.4565101 189.718
2.67243 2.45663 189.72701
2.80445 2.4565799 189.72301
2.9368899 2.4568801 189.746
3.0690401 2.4569299 189.75
3.20105 2.4568601 189.745
3.33322 2.4569199 189.75
3.46455 2.4563799 189.70799
3.59567 2.45573 189.658
3.7270899 2.4553299 189.627
3.8584001 2.45489 189.592
3.98982 2.45454 189.565
4.1206999 2.4538901 189.515
4.2525802 2.45386 189.513
4.3842502 2.4537101 189.502
4.5153499 2.45327 189.467
4.64821 2.4537799 189.507
4.7815599 2.45451 189.563
5.0513301 2.45735 189.783
5.1841898 2.4577 189.81
5.3166399 2.45785 189.821
5.4499602 2.45838 189.862
5.5811 2.4579201 189.827
5.71386 2.45819 189.847
5.8457799 2.4580801 189.839
6.1082501 2.45734 189.782
6.2410898 2.4576299 189.804
6.3716798 2.4570301 189.758
6.5020399 2.4563701 189.707
6.6336298 2.4561999 189.694
6.7658 2.4562399 189.69701
6.89745 2.45609 189.686
7.0309 2.4565799 189.72301
7.1634998 2.4567599 189.737
7.2975898 2.4574399 189.789
7.43151 2.45803 189.83501
7.56707 2.4591401 189.92101
7.7031298 2.4603701 190.01601
7.8402801 2.4619 190.134
7.9776802 2.46345 190.254
8.1155005 2.46509 190.38
8.2505102 2.4658301 190.437
8.3877201 2.46719 190.543
8.5236998 2.4681499 190.617
8.6594801 2.4690299 190.685
8.7950401 2.46982 190.746
8.9279299 2.4698501 190.748
9.0577202 2.4690299 190.685
9.1887999 2.46859 190.64999
9.3202896 2.46826 190.625
9.4520397 2.4680099 190.606
9.5814695 2.46717 190.541
9.7131901 2.4669399 190.52299
9.8434801 2.4663501 190.478
9.9734001 2.4656899 190.427
10.1065 2.4658201 190.437
10.2415 2.4664099 190.483
10.3755 2.4667399 190.508
10.5108 2.46736 190.556
10.6462 2.4679899 190.605
10.7839 2.4691501 190.694
10.9243 2.47088 190.828
11.0668 2.4730301 190.993
11.213 2.47595 191.21899
11.3625 2.4795201 191.495
11.5002 2.4804699 191.56799
11.6373 2.4812701 191.63
11.7712 2.48138 191.638
11.9051 2.4814899 191.647
12.0379 2.48136 191.63699
12.1756 2.48224 191.705
12.3153 2.48349 191.802
12.5911 2.48523 191.936
12.7282 2.4858999 191.98801
12.8679 2.4870601 192.077
13.0069 2.48809 192.15601
13.1543 2.49066 192.355
13.3018 2.4932101 192.552
13.4628 2.4981999 192.938
13.6108 2.50073 193.133
13.753 2.50214 193.241
13.8989 2.50418 193.39999
14.0385 2.50507 193.468
14.1765 2.5056601 193.51401
14.3148 2.5062799 193.561
14.4582 2.5077801 193.677
14.6015 2.5092399 193.78999
14.7433 2.5104101 193.881
14.8886 2.51215 194.015
15.0388 2.5146999 194.211
15.1945 2.51809 194.474
15.3902 2.5279901 195.23801
15.542 2.53057 195.438
15.6855 2.53177 195.53
15.8305 2.5332 195.64101
15.9715 2.5339701 195.7
16.111601 2.53458 195.74699
16.254299 2.5355799 195.82401
16.5431 2.5380599 196.01601
17.003799 2.56639 198.20399
17.144899 2.56686 198.24001
-5.4828401 2.6361201 193.19701
-5.35359 2.63871 193.386
-5.2244501 2.64148 193.59
-5.09266 2.6430299 193.703
-4.9632201 2.64591 193.914
-4.8299499 2.6468599 193.983
-4.6965699 2.64779 194.052
-4.5650802 2.6498799 194.205
-4.4331498 2.65183 194.34801
-4.29988 2.65309 194.44
-4.16678 2.65453 194.54601
-4.0321102 2.65503 194.582
-3.8972099 2.6554101 194.61
-3.7607501 2.6547101 194.55901
-3.6249499 2.65446 194.53999
-3.4893301 2.65431 194.52901
-3.3528399 2.65346 194.467
-3.21597 2.65223 194.377
-3.0794799 2.6512201 194.30299
-2.8070199 2.6494 194.17
-2.6710401 2.6486001 194.11099
-2.53461 2.6472499 194.01199
-2.3987401 2.6463499 193.946
-2.2630501 2.64556 193.888
-2.1277699 2.64519 193.86099
-1.99253 2.64481 193.83299
-1.85636 2.6430399 193.70399
-1.72066 2.6417501 193.60899
-1.44877 2.6375 193.298
-1.3125499 2.6341901 193.05499
-1.17691 2.6314001 192.85001
-1.04137 2.62815 192.612
-0.90630102 2.6253099 192.40401
-0.771433 2.62216 192.173
-0.63710499 2.61991 192.009
-0.50293201 2.61728 191.81599
-0.369086 2.6150701 191.653
-0.23551001 2.6133201 191.526
-0.102096 2.6112101 191.371
0.0311042 2.6092899 191.23
0.164151 2.6080401 191.13901
0.297021 2.60637 191.01601
0.42973399 2.6047699 190.899
0.56228203 2.6031699 190.782
0.69463199 2.60144 190.655
0.82685298 2.5998499 190.53799
0.95908302 2.5987301 190.45599
1.09136 2.59799 190.40199
1.2234 2.59691 190.323
1.3551 2.5953901 190.21201
1.61874 2.5934801 190.071
1.7503901 2.5925 190
1.8825001 2.5922699 189.983
2.0146101 2.5920801 189.96899
2.1464801 2.59163 189.936
2.2781501 2.5910001 189.89
2.4100499 2.5906899 189.867
2.5415299 2.5899799 189.815
2.6738801 2.5901799 189.83
2.8061399 2.5902801 189.83701
2.9381599 2.5901599 189.828
3.0702 2.59007 189.82201
3.2023699 2.59009 189.823
3.3343401 2.5899501 189.813
3.4655299 2.5892501 189.761
3.5966101 2.58851 189.707
3.7279 2.58797 189.668
3.85956 2.5877199 189.649
3.9909699 2.5873201 189.62
4.12221 2.5868399 189.58501
4.2542801 2.58689 189.589
4.3853598 2.58636 189.55
4.5169501 2.5861599 189.535
4.6507502 2.5871799 189.61
4.7842798 2.5880201 189.67101
4.91887 2.58936 189.769
5.0529499 2.5903699 189.843
5.18536 2.5904901 189.853
5.3189101 2.5911701 189.90199
5.4512801 2.5912499 189.908
5.5823302 2.5907099 189.869
5.7149401 2.59091 189.883
5.84761 2.59112 189.899
5.9790502 2.59079 189.875
6.1108098 2.59062 189.862
6.2435999 2.5908699 189.88
6.3744998 2.5903499 189.842
6.50559 2.58992 189.811
6.63729 2.5897501 189.798
6.7703199 2.5901 189.82401
6.9025698 2.5901401 189.827
7.0363102 2.5907199 189.87
7.1700902 2.5913 189.912
7.30369 2.5918 189.948
7.4390502 2.59289 190.028
7.5743499 2.59392 190.104
7.7092099 2.59477 190.166
7.8453002 2.5959899 190.256
7.9832201 2.59777 190.386
8.1207399 2.59937 190.50301
8.2555704 2.60006 190.554
8.3925505 2.6014099 190.65199
8.5271301 2.60197 190.694
8.6610098 2.6023099 190.71899
8.7963495 2.60307 190.774
8.92869 2.6029401 190.765
9.0589399 2.6022 190.711
9.1895304 2.6015899 190.666
9.3210402 2.6012499 190.64101
9.4526701 2.60095 190.619
9.5829201 2.60028 190.57001
9.7146301 2.6000299 190.55099
9.8447304 2.59935 190.502
9.97577 2.5989399 190.472
10.11 2.59936 190.502
10.2446 2.59987 190.53999
10.3798 2.6005199 190.58701
10.5147 2.6010499 190.62601
10.6506 2.60183 190.683
10.7891 2.60322 190.785
10.93 2.60515 190.927
11.0753 2.6080799 191.14101
11.3682 2.6142299 191.592
11.5057 2.61516 191.661
11.6414 2.61568 191.698
11.7747 2.6156399 191.696
11.9081 2.6156199 191.694
12.0429 2.6159301 191.717
12.1825 2.61724 191.813
12.3198 2.6180401 191.871
12.4582 2.6190701 191.94701
12.5961 2.6199501 192.011
12.7355 2.62112 192.097
12.874 2.6220901 192.168
13.0194 2.6244299 192.34
13.1638 2.6265399 192.495
13.3184 2.63061 192.79201
13.4786 2.63569 193.16499
13.7629 2.6386299 193.38
13.9074 2.6405101 193.51801
14.0464 2.64131 193.577
14.1825 2.6415701 193.59599
14.3221 2.6424501 193.66
14.4639 2.6437299 193.755
14.607 2.64522 193.86301
14.7539 2.6473501 194.02
14.8994 2.64922 194.157
15.0465 2.65132 194.31
15.2163 2.6573501 194.752
15.5552 2.6689799 195.605
15.6982 2.67014 195.69
15.8405 2.67115 195.76401
15.9796 2.6716399 195.799
16.2607 2.6730199 195.901
16.4035 2.6740799 195.978
16.8384 2.7000501 197.882
17.009701 2.70539 198.27299
-5.3553801 2.7743399 193.451
-5.2273698 2.7778699 193.698
-5.0970402 2.78034 193.869
-4.9662299 2.78266 194.032
-4.83355 2.78404 194.12801
-4.5701098 2.7882199 194.41901
-4.43716 2.7897201 194.524
-4.3039198 2.7911401 194.623
-3.8993199 2.79247 194.716
-3.7627499 2.7917099 194.66299
-3.62678 2.7913599 194.638
-3.4904599 2.79071 194.593
-3.21699 2.7885001 194.439
-3.08057 2.78755 194.37199
-2.9444699 2.7867999 194.32001
-2.8078799 2.78549 194.229
-2.6721301 2.78493 194.19
-2.53566 2.78352 194.092
-2.39959 2.7824199 194.015
-2.2637999 2.7815299 193.953
-2.12833 2.7809401 193.911
-1.99303 2.7805099 193.882
-1.85695 2.7788601 193.76601
-1.7214 2.7777901 193.692
-1.58513 2.77529 193.51801
-1.44923 2.77302 193.35899
-1.17716 2.76631 192.892
-1.04151 2.7626801 192.638
-0.90643001 2.7597101 192.431
-0.77155203 2.7564399 192.203
-0.63714701 2.75383 192.021
-0.502918 2.7508099 191.81
-0.369075 2.7484701 191.647
-0.235506 2.74668 191.52299
-0.102103 2.7446899 191.384
0.031111499 2.74313 191.27499
0.164205 2.74207 191.201
0.29708299 2.73998 191.05499
0.42983299 2.7383699 190.94299
0.56248099 2.73702 190.849
0.69492799 2.7354 190.73599
0.82721603 2.7337601 190.62199
0.95949203 2.7325499 190.53799
1.0917799 2.7316599 190.47501
1.2238801 2.7305501 190.39799
1.35559 2.7288599 190.28
1.48762 2.72807 190.22501
1.61933 2.7268701 190.14101
1.7512701 2.7262001 190.09399
1.8832999 2.72577 190.064
2.0153601 2.72541 190.03999
2.1472499 2.72491 190.004
2.27915 2.7244599 189.97301
2.5430901 2.72385 189.931
2.67521 2.7237599 189.924
2.80705 2.7233901 189.899
2.9386699 2.7228501 189.86099
3.0708101 2.7228301 189.85899
3.2028799 2.7227399 189.853
3.3345301 2.7223201 189.82401
3.4661 2.7218599 189.79201
3.5973001 2.7211699 189.743
3.72878 2.7207201 189.71201
3.86075 2.72066 189.70799
3.9920101 2.7200999 189.66901
4.1237502 2.7199099 189.65601
4.2557201 2.7198701 189.653
4.3872299 2.7195499 189.631
4.5202298 2.72015 189.672
4.6540098 2.7211599 189.743
4.7878399 2.7221501 189.812
4.9209199 2.7226701 189.84801
5.0547099 2.7235501 189.91
5.1866202 2.7233901 189.899
5.31951 2.7237501 189.923
5.4521198 2.7239399 189.937
5.5837302 2.72364 189.916
5.7164001 2.72386 189.931
5.8489699 2.72403 189.94299
5.9811502 2.724 189.94099
6.11414 2.72434 189.965
6.2464199 2.72436 189.966
6.3779602 2.7240601 189.94501
6.5086002 2.7233901 189.899
6.6409402 2.7234499 189.903
6.7751498 2.7242601 189.959
6.9091301 2.7249401 190.007
7.04175 2.72508 190.01601
7.1760998 2.7258601 190.071
7.3105001 2.72664 190.125
7.4448299 2.72736 190.17599
7.5794601 2.7281699 190.23199
7.7154899 2.72944 190.321
7.9876299 2.73189 190.491
8.12428 2.7332499 190.586
8.25877 2.73385 190.62801
8.3944197 2.7348101 190.69501
8.5285397 2.73525 190.72501
8.6629105 2.73575 190.761
8.7982998 2.7365601 190.817
8.9295301 2.7360599 190.782
9.05966 2.73525 190.726
9.1896496 2.7344301 190.668
9.3210201 2.73403 190.64
9.4526396 2.7337101 190.618
9.5835896 2.7332101 190.58299
9.7150402 2.7328701 190.55901
9.84589 2.7323699 190.524
9.97925 2.7325599 190.53799
10.1135 2.733 190.56799
10.2478 2.7334399 190.60001
10.3835 2.73423 190.655
10.5194 2.73505 190.71201
10.6572 2.7363501 190.80299
10.796 2.73787 190.908
10.9398 2.7406001 191.09801
11.086 2.74384 191.325
11.2344 2.74757 191.58501
11.3757 2.7495 191.71899
11.5108 2.7498701 191.745
11.6448 2.75 191.754
11.779 2.75016 191.765
11.9128 2.7502401 191.771
12.0484 2.75071 191.804
12.1869 2.7518301 191.882
12.3251 2.7528701 191.95399
12.4654 2.7543399 192.05701
12.6021 2.7549901 192.10201
12.7416 2.7562499 192.19
12.8841 2.75811 192.319
13.0307 2.7607999 192.507
13.1822 2.7644701 192.763
13.3446 2.7703199 193.17101
13.6334 2.77437 193.453
13.7763 2.7760301 193.569
14.1876 2.7774 193.66499
14.3306 2.77899 193.77499
14.4716 2.78017 193.858
14.6154 2.7818501 193.97501
14.7613 2.78389 194.117
14.908 2.7860601 194.269
15.0654 2.7901499 194.554
15.2705 2.8029399 195.446
15.4244 2.80618 195.672
15.5634 2.8067 195.70799
15.707 2.8080001 195.799
15.8501 2.8092101 195.883
15.9868 2.8092699 195.88699
16.1273 2.8099899 195.937
16.271099 2.81127 196.026
16.408001 2.8113401 196.03101
16.8685 2.8429599 198.23599
17.0117 2.8438201 198.29601
-5.4899201 2.9090099 193.446
-5.3586702 2.9108701 193.57001
-5.2294302 2.91394 193.774
-5.1002302 2.9172001 193.991
-4.9689798 2.91943 194.13901
-4.8374801 2.9216299 194.286
-4.7069101 2.92454 194.479
-4.5741501 2.9262199 194.591
-4.44175 2.9282501 194.72501
-4.30794 2.92943 194.804
-4.1728401 2.92979 194.828
-4.0369501 2.9296 194.81599
-3.9012499 2.9295399 194.812
-3.7646201 2.92875 194.759
-3.6286099 2.9284101 194.737
-3.4916601 2.9272499 194.66
-3.3548801 2.9261501 194.586
-3.0819399 2.9242301 194.45799
-2.9456501 2.9233201 194.39799
-2.809 2.9219401 194.306
-2.5369 2.92014 194.187
-2.4005101 2.9186699 194.089
-2.2646101 2.91767 194.022
-2.12889 2.91677 193.96201
-1.99339 2.91609 193.91701
-1.85754 2.9147401 193.827
-1.58566 2.9110501 193.582
-1.44973 2.9087 193.42599
-1.31347 2.90516 193.19
-1.17744 2.90135 192.937
-1.04175 2.8975201 192.68201
-0.906596 2.89428 192.467
-0.771667 2.8907399 192.23199
-0.637173 2.8877001 192.02901
-0.50291902 2.8844199 191.811
-0.3691 2.8821599 191.661
-0.235506 2.88008 191.52299
-0.102107 2.8781199 191.392
0.0311154 2.87673 191.3
0.16423599 2.8757999 191.23801
0.297135 2.87357 191.089
0.56259698 2.8705399 190.888
0.69510502 2.8689799 190.784
0.82737797 2.8671 190.659
0.95985597 2.8663599 190.61
1.09236 2.86586 190.577
1.22434 2.8642399 190.46899
1.35614 2.86256 190.35699
1.48814 2.8615699 190.29201
1.6199 2.8603201 190.20799
1.88402 2.8592401 190.13699
2.01615 2.8589101 190.11501
2.1479499 2.85818 190.06599
2.2799499 2.85778 190.03999
2.4121201 2.85763 190.02901
2.54388 2.8570399 189.99001
2.6759901 2.8568699 189.979
2.8076601 2.8562801 189.94
2.9394701 2.85587 189.91299
3.0715599 2.8557701 189.90601
3.20316 2.8552301 189.87
3.3349299 2.8548801 189.847
3.46663 2.8545001 189.821
3.5980799 2.85395 189.785
3.7298 2.8536401 189.765
3.8618 2.85356 189.759
3.99334 2.8531599 189.733
4.1251998 2.8530099 189.722
4.2573299 2.85305 189.72501
4.3899498 2.8534 189.748
4.52356 2.8543601 189.812
4.6577702 2.8556299 189.897
4.7902498 2.8557999 189.908
4.9230299 2.8561299 189.92999
5.0562501 2.8566899 189.967
5.1875501 2.8561699 189.933
5.3203602 2.8564899 189.95399
5.4534602 2.85694 189.98399
5.5848298 2.8564899 189.95399
5.7178602 2.8568799 189.98
5.8505998 2.85712 189.996
5.9832902 2.8573201 190.009
6.1162901 2.8576601 190.032
6.24827 2.8575201 190.022
6.3802099 2.8573699 190.01199
6.51231 2.85729 190.007
6.6451702 2.8575399 190.024
6.77982 2.8585401 190.09
6.9130998 2.8589301 190.116
7.0466199 2.85941 190.14799
7.1825299 2.86081 190.241
7.3172102 2.86169 190.3
7.4503698 2.8619499 190.317
7.58426 2.8624799 190.35201
7.72048 2.8638599 190.444
7.8543901 2.8643401 190.476
7.9917498 2.86605 190.59
8.1270199 2.86696 190.64999
8.2606201 2.86727 190.67101
8.3952398 2.8679099 190.713
8.5315399 2.8691001 190.79201
8.9295998 2.8689699 190.784
9.0595102 2.8680501 190.72301
9.1896896 2.86724 190.66901
9.32127 2.86689 190.645
9.4529896 2.86659 190.625
9.5846996 2.8662901 190.605
9.8482904 2.8657701 190.571
9.98141 2.8659 190.57899
10.1152 2.86621 190.60001
10.3872 2.8680501 190.722
10.5237 2.86906 190.78999
10.6636 2.87096 190.916
10.8064 2.87361 191.092
10.9526 2.87707 191.32201
11.1021 2.8812799 191.60201
11.2437 2.8834 191.743
11.3819 2.8845999 191.823
11.5155 2.8845999 191.823
11.6497 2.8847699 191.834
11.7836 2.88485 191.84
11.9184 2.88516 191.86
12.0555 2.8860099 191.91701
12.192 2.8866899 191.96201
12.3316 2.8880899 192.05499
12.4713 2.8894899 192.14799
12.6079 2.8901401 192.19099
12.7505 2.8921199 192.323
12.8954 2.8945999 192.48801
13.0424 2.8975 192.681
13.2127 2.9054301 193.20799
13.361 2.9084499 193.409
13.5019 2.9098001 193.49899
13.6432 2.91119 193.592
13.786 2.91291 193.70599
13.9261 2.91401 193.77901
14.0598 2.9137399 193.761
14.1951 2.91383 193.767
14.3369 2.91524 193.86099
14.4828 2.9174399 194.007
14.6241 2.91869 194.09
14.7708 2.92098 194.242
14.9173 2.9231999 194.39
15.2912 2.9430699 195.711
15.4325 2.94403 195.77499
15.5719 2.9446101 195.814
15.7129 2.9454899 195.87199
15.8557 2.9466801 195.952
15.9929 2.94683 195.961
16.137199 2.9482801 196.058
16.272699 2.9481001 196.04601
16.7083 2.9770701 197.972
16.872101 2.9816699 198.278
-5.49578 3.0469999 193.653
-5.3617702 3.0474501 193.68201
-5.23282 3.05088 193.89999
-5.1039701 3.0545499 194.133
-4.9723802 3.05674 194.272
-4.84129 3.05937 194.439
-4.71035 3.0622399 194.621
-4.5778098 3.0642099 194.74699
-4.44625 3.0669799 194.923
-4.31143 3.0676 194.96201
-4.1749301 3.06703 194.92599
-4.0395899 3.0673001 194.94299
-3.90343 3.0669501 194.92101
-3.76632 3.0658 194.84801
-3.6307001 3.06581 194.849
-3.4932599 3.06424 194.748
-3.3559401 3.06264 194.647
-3.2200601 3.0622799 194.62399
-2.94677 3.05989 194.472
-2.8102901 3.0586901 194.396
-2.6738701 3.05744 194.317
-2.5378699 3.0565701 194.261
-2.4012599 3.0548201 194.14999
-2.26508 3.0534501 194.063
-2.1292801 3.0524299 193.998
-1.99374 3.0517001 193.951
-1.85815 3.05074 193.89101
-1.72215 3.0489399 193.776
-1.58612 3.0467701 193.638
-1.45003 3.04407 193.466
-1.31384 3.04056 193.244
-1.17772 3.0364699 192.983
-1.04193 3.03227 192.717
-0.90674198 3.02882 192.498
-0.77181101 3.0251999 192.26801
-0.63723397 3.02174 192.048
-0.50293201 3.0181 191.81599
-0.36913401 3.0159299 191.67799
-0.235526 3.0137501 191.539
-0.102113 3.01159 191.40199
0.0311203 3.0104401 191.33
0.29721099 3.0074301 191.138
0.43004501 3.0058401 191.037
0.56273198 3.00422 190.93401
0.69520903 3.00231 190.813
0.96016198 3.0000701 190.67
1.09264 2.9993701 190.62601
1.2247699 2.9979601 190.536
1.35666 2.9963 190.431
1.48873 2.9953001 190.367
1.62032 2.9935801 190.258
1.75271 2.99347 190.25
2.01689 2.99243 190.18401
2.1487801 2.9917099 190.13901
2.28057 2.9909599 190.092
2.4125199 2.99049 190.061
