# .PCD v0.7 - Point Cloud Data file format
VERSION 0.7
FIELDS x y z
SIZE 4 4 4
TYPE F F F
COUNT 1 1 1
WIDTH 1786
HEIGHT 1
VIEWPOINT 0 0 0 1 0 0 0
POINTS 1786
DATA ascii
15.3929 1.5625499 193.563
15.547 1.5645 193.80499
15.7018 1.56648 194.05
15.8616 1.56893 194.353
16.0432 1.57347 194.916
16.213499 1.57683 195.332
16.364901 1.57831 195.51601
16.514601 1.57961 195.677
16.6658 1.58104 195.854
17.1583 1.60156 198.396
17.324699 1.60417 198.71899
17.485201 1.60621 198.972
-6.71773 1.70034 193.90199
-6.5870299 1.70145 194.02901
-6.4577098 1.70297 194.202
-6.32689 1.70415 194.336
-6.1929498 1.70452 194.37801
-6.0598102 1.70513 194.448
-5.92485 1.70525 194.461
-5.7895198 1.70526 194.463
-5.6564698 1.70596 194.543
-5.5246902 1.70709 194.672
-5.3923202 1.7080899 194.785
-5.2586899 1.70873 194.858
-5.12433 1.70916 194.907
-4.9893699 1.70941 194.936
-4.85431 1.70963 194.961
-4.7187901 1.70971 194.97
-4.58145 1.70911 194.90199
-4.44418 1.70849 194.832
-4.3067198 1.70777 194.74899
-4.1684999 1.70669 194.62601
-4.0304999 1.7056201 194.504
-3.8914499 1.70403 194.323
-3.7549 1.70345 194.257
-3.3396599 1.6986001 193.703
-3.20103 1.6965899 193.474
-2.6470001 1.68685 192.364
-2.5099699 1.68476 192.125
-2.37307 1.68253 191.871
-2.10162 1.67908 191.478
-1.9664299 1.67747 191.29401
-1.83204 1.67635 191.16701
-1.69801 1.67542 191.06
-1.5639 1.67424 190.925
-1.43004 1.67314 190.799
-1.29617 1.67179 190.645
-1.16266 1.67065 190.51601
-1.0292799 1.66943 190.377
-0.896155 1.6683199 190.25
-0.763147 1.66708 190.10899
-0.63042998 1.6661 189.99699
-0.49783 1.6649801 189.87
-0.365504 1.66431 189.793
-0.233284 1.66363 189.716
-0.101163 1.66281 189.62199
0.030826 1.66192 189.52
0.162673 1.6610301 189.41901
0.29439801 1.6602401 189.32899
0.42607701 1.65976 189.274
0.557778 1.65958 189.25301
0.68944001 1.6593699 189.229
0.82088399 1.65878 189.16299
0.95230502 1.65832 189.11
1.08367 1.65789 189.061
1.47988 1.65942 189.23599
1.61151 1.65931 189.222
1.74292 1.6590101 189.188
1.87394 1.6584001 189.119
2.0052099 1.65808 189.08299
2.1367099 1.65799 189.07201
2.2680199 1.65775 189.045
2.5297799 1.6568 188.937
2.66118 1.65672 188.92799
2.7926099 1.65667 188.922
2.9242499 1.65674 188.92999
3.0560999 1.65692 188.95
3.1884601 1.65734 188.998
3.3206799 1.65767 189.036
3.45344 1.6582299 189.099
3.5861599 1.65873 189.15601
3.7181399 1.65886 189.17101
3.8505299 1.65916 189.20599
3.98192 1.6590199 189.19
4.11309 1.65881 189.166
4.2453499 1.65903 189.19099
4.3758702 1.6585799 189.14
4.50633 1.6581399 189.089
4.6363502 1.65756 189.02299
4.7658501 1.65683 188.94
4.8954601 1.65618 188.866
5.02562 1.65575 188.817
5.1557298 1.65532 188.76801
5.4172401 1.65492 188.722
5.5483699 1.65484 188.714
5.68118 1.65526 188.761
5.8130202 1.65539 188.77499
5.9460101 1.65583 188.825
6.0798302 1.6564699 188.899
6.21348 1.65704 188.964
6.3486099 1.65798 189.071
6.4841599 1.65898 189.186
6.61836 1.65961 189.257
6.88761 1.661 189.41499
7.0237298 1.6619999 189.53
7.1571398 1.66234 189.569
7.2889299 1.6623 189.564
7.4205198 1.66222 189.55499
7.55058 1.6618 189.507
7.8092699 1.6607 189.382
7.9383798 1.66013 189.317
8.0673304 1.65955 189.25
8.1977797 1.65929 189.22
8.33002 1.65939 189.23199
8.5907001 1.65885 189.17
8.7244596 1.65924 189.215
8.8582697 1.65964 189.25999
8.9925699 1.66011 189.314
9.1292 1.66099 189.414
9.2634497 1.66141 189.463
9.3997698 1.6622 189.552
9.5356998 1.66289 189.631
9.67453 1.66406 189.765
9.8131304 1.6651599 189.89101
10.0859 1.66655 190.048
10.2182 1.66655 190.049
10.3507 1.66658 190.052
10.4863 1.66711 190.11301
10.6216 1.66756 190.164
10.7559 1.66786 190.198
10.8897 1.66808 190.22301
11.0236 1.6683 190.24899
11.1623 1.66924 190.356
11.2993 1.6698999 190.431
11.4326 1.67 190.442
11.57 1.67071 190.522
11.709 1.67162 190.627
11.8509 1.67291 190.774
11.9918 1.67404 190.903
12.1332 1.67522 191.037
12.273 1.67615 191.14301
12.4146 1.6773 191.274
12.5527 1.67796 191.35001
12.6894 1.6784199 191.40199
12.8258 1.67884 191.45
12.9634 1.67939 191.513
13.2438 1.6811399 191.71201
13.3837 1.68195 191.80499
13.5261 1.68305 191.92999
13.6654 1.68375 192.00999
13.8076 1.6848 192.13
13.9528 1.68618 192.287
14.0977 1.6875 192.438
14.2407 1.68857 192.56
14.3906 1.69043 192.772
14.5359 1.69173 192.92
14.8222 1.69375 193.151
14.9637 1.69455 193.241
15.1076 1.6956 193.36099
15.2505 1.69652 193.466
15.4007 1.69823 193.662
15.5531 1.70016 193.881
15.7098 1.70251 194.149
15.8749 1.7057199 194.515
16.0658 1.71164 195.19099
16.236099 1.71527 195.605
16.380501 1.71613 195.702
16.525801 1.71707 195.81
16.676201 1.7185301 195.976
16.955299 1.73311 197.63901
17.179001 1.74184 198.634
17.3368 1.7438101 198.85899
-6.8525701 1.8353601 193.89799
-6.7229199 1.83682 194.052
-6.461 1.83917 194.30099
-6.3295298 1.84027 194.41701
-6.1958098 1.84076 194.468
-6.0632701 1.84162 194.55901
-5.92768 1.84157 194.554
-5.79282 1.84176 194.57401
-5.6599002 1.84258 194.661
-5.52775 1.8437099 194.77901
-5.3944702 1.8444999 194.86301
-5.26085 1.84521 194.938
-5.1262102 1.84559 194.979
-4.9911799 1.84585 195.006
-4.8557 1.84596 195.01801
-4.7203398 1.84611 195.034
-4.5836401 1.84574 194.994
-4.4460001 1.84496 194.912
-4.3082099 1.84405 194.81599
-4.1700301 1.8429199 194.69701
-4.0322299 1.84189 194.588
-3.7565701 1.8395801 194.343
-3.6191599 1.8385 194.23
-3.48102 1.8369499 194.06599
-3.20415 1.83314 193.66299
-3.0653501 1.83076 193.411
-2.9270501 1.82848 193.17101
-2.37569 1.81818 192.082
-2.23926 1.81598 191.85001
-1.96816 1.81231 191.46201
-1.83315 1.8106 191.282
-1.69882 1.80936 191.151
-1.4306901 1.80685 190.886
-1.29687 1.80555 190.748
-1.16325 1.80425 190.61099
-1.02976 1.80286 190.465
-0.89665401 1.8018301 190.356
-0.76353598 1.80042 190.20599
-0.63073701 1.79931 190.09
-0.49809799 1.7982 189.972
-0.36569899 1.79746 189.894
-0.23337699 1.79649 189.791
-0.101205 1.79563 189.7
0.0308397 1.7947201 189.605
0.162744 1.79373 189.5
0.294543 1.79299 189.422
0.42625701 1.7923501 189.354
0.68977898 1.79205 189.32201
0.82128102 1.79141 189.254
0.95279998 1.79097 189.209
1.08453 1.791 189.211
1.2168 1.7918 189.29601
1.34892 1.79225 189.34399
1.48083 1.79238 189.35699
1.61253 1.79224 189.343
1.74396 1.79186 189.302
1.87484 1.79099 189.21001
2.00632 1.7907799 189.188
2.13761 1.7904299 189.151
2.2690899 1.79027 189.13499
2.39991 1.7896399 189.06799
2.66201 1.78887 188.987
2.7937801 1.78901 189.00101
2.9256101 1.78917 189.01801
3.0574501 1.78932 189.033
3.1898899 1.78979 189.08299
3.32251 1.79032 189.14
3.4554601 1.79098 189.21001
3.5880301 1.79141 189.255
3.71979 1.79141 189.255
3.85185 1.7915601 189.271
3.9830501 1.7913001 189.244
4.1138501 1.7909 189.2
4.2459998 1.79108 189.22
4.3766499 1.79064 189.173
4.5068002 1.79003 189.10899
4.6371398 1.78952 189.05499
4.7666898 1.7887501 188.97301
4.8965702 1.7881401 188.909
5.0269198 1.78772 188.86501
5.1573 1.7873501 188.825
5.2883501 1.78721 188.811
5.4187102 1.78685 188.77299
5.5499101 1.78678 188.76601
5.68328 1.7874 188.83099
5.8155699 1.78766 188.858
5.9488802 1.78821 188.916
6.0830998 1.789 189
6.2175498 1.78983 189.088
6.3529301 1.79089 189.2
6.48839 1.79193 189.30901
6.62255 1.79257 189.377
6.7558098 1.79294 189.41701
6.8921399 1.7941099 189.53999
7.2919402 1.7950799 189.64301
7.4233799 1.79494 189.62801
7.5528598 1.79434 189.564
7.6820402 1.79369 189.495
7.8120899 1.79326 189.45
7.9407101 1.79252 189.37199
8.0693197 1.79181 189.297
8.1997995 1.79152 189.267
8.3318701 1.79159 189.274
8.4616404 1.79117 189.229
8.5929699 1.79109 189.22
8.7274399 1.7916501 189.28
8.8609896 1.7920099 189.31799
8.9958496 1.7926199 189.383
9.1319199 1.79345 189.47
9.2665195 1.79397 189.526
9.4028902 1.79482 189.61501
9.5396299 1.79571 189.709
9.6796999 1.7972 189.866
9.9552603 1.79922 190.08
10.0886 1.79941 190.10001
10.2215 1.7995 190.10899
10.3537 1.79949 190.108
10.4891 1.80001 190.16299
10.6248 1.80057 190.222
10.7591 1.80089 190.256
10.8922 1.80099 190.267
11.0264 1.80127 190.297
11.1659 1.80241 190.416
11.3023 1.80303 190.48199
11.4361 1.80321 190.50101
11.574 1.8040299 190.588
11.7136 1.80509 190.7
11.9976 1.80788 190.995
12.1382 1.8090301 191.116
12.279 1.8101701 191.23599
12.4205 1.81139 191.366
12.5577 1.81197 191.42599
12.6947 1.81249 191.48199
12.8327 1.8131599 191.552
13.1094 1.81455 191.69901
13.2497 1.81548 191.797
13.3886 1.81622 191.875
13.5315 1.8174599 192.007
13.6713 1.81829 192.09399
13.8137 1.81943 192.214
13.9584 1.82084 192.364
14.1053 1.82252 192.541
14.2547 1.8244801 192.74899
14.4033 1.82631 192.942
14.5484 1.82767 193.08501
14.6904 1.8286099 193.185
14.8303 1.82928 193.256
14.9727 1.83024 193.35699
15.1141 1.8310601 193.444
15.2571 1.83207 193.55
15.4076 1.83394 193.748
15.5585 1.83583 193.94701
15.7174 1.83863 194.243
15.895 1.84354 194.76199
16.089199 1.85028 195.474
16.2509 1.85321 195.783
16.389601 1.85348 195.812
16.5347 1.85446 195.91499
16.698799 1.85755 196.242
16.9856 1.87411 197.992
17.1959 1.88205 198.83
17.3507 1.88383 199.01801
17.5116 1.88623 199.272
-6.7267399 1.9730999 194.162
-6.5977001 1.9749399 194.343
-6.4647198 1.97565 194.412
-6.3326702 1.97667 194.513
-6.1995502 1.9773999 194.58501
-6.0669999 1.97835 194.679
-5.93119 1.97826 194.66901
-5.79602 1.97838 194.681
-5.6630402 1.97927 194.769
-5.5306602 1.98041 194.882
-5.39643 1.98094 194.93401
-5.26301 1.9818 195.01801
-5.1289401 1.98246 195.08299
-4.9935899 1.98264 195.101
-4.8575802 1.98256 195.093
-4.7212801 1.98236 195.073
-4.4471302 1.98122 194.961
-4.3102198 1.98068 194.908
-4.1718502 1.9794 194.782
-4.0338001 1.9782 194.664
-3.8968 1.97745 194.59
-3.7581301 1.97576 194.424
-3.6210001 1.97479 194.328
-3.4835701 1.97357 194.20799
-3.3459499 1.97214 194.06799
-2.9301901 1.96513 193.37801
-2.7929599 1.96329 193.19701
-2.24209 1.95207 192.092
-2.1058099 1.94971 191.86
-1.83489 1.94568 191.464
-1.69999 1.94384 191.283
-1.56543 1.9421 191.112
-1.43139 1.94075 190.979
-1.29749 1.93934 190.84
-1.03038 1.93669 190.57899
-0.763915 1.9338599 190.30099
-0.63108099 1.93277 190.19299
-0.49833199 1.93143 190.061
-0.36586499 1.9306099 189.981
-0.101253 1.9286799 189.791
0.0308546 1.92772 189.696
0.294736 1.92619 189.54601
0.42658499 1.92572 189.5
0.558433 1.92548 189.476
0.690202 1.9251 189.438
0.82170498 1.92422 189.35201
0.95331299 1.9238 189.311
1.08521 1.92399 189.32899
1.34973 1.9253 189.45799
1.48151 1.92515 189.444
1.61333 1.9250799 189.436
1.74463 1.92445 189.37399
1.87569 1.92365 189.29601
2.00719 1.92338 189.269
2.13835 1.92285 189.217
2.27002 1.9227999 189.21201
2.4009299 1.92215 189.14799
2.53181 1.92154 189.089
2.66291 1.92116 189.05099
2.7948 1.92135 189.07001
2.9266901 1.92153 189.08701
3.0588901 1.92189 189.12199
3.1914001 1.9224 189.173
3.3243501 1.92313 189.244
3.4572001 1.92374 189.30499
3.5894101 1.92397 189.327
3.7210801 1.92391 189.321
3.85302 1.92398 189.328
3.98382 1.92349 189.28
4.1146102 1.92303 189.235
4.2466402 1.92317 189.24899
4.3771801 1.92264 189.196
4.5074 1.9220099 189.134
4.6375499 1.92137 189.07201
4.76756 1.92072 189.008
4.8978701 1.92023 188.959
5.0282998 1.9198 188.91701
5.1589599 1.91948 188.886
5.28967 1.9191999 188.858
5.4208298 1.91909 188.847
5.55162 1.9188499 188.82401
5.6858802 1.9198 188.918
5.8180599 1.92002 188.939
5.95223 1.9208699 189.02299
6.08676 1.9218 189.114
6.2223101 1.92301 189.233
6.35707 1.92392 189.323
6.4914999 1.92471 189.39999
6.6254501 1.92531 189.46001
6.7596502 1.92597 189.524
7.0316801 1.92821 189.744
7.1640201 1.92828 189.75101
7.4245501 1.92732 189.658
7.5540099 1.92667 189.593
7.6829801 1.92591 189.519
7.81388 1.92566 189.494
7.9427099 1.9249099 189.42
8.0713596 1.92415 189.345
8.2021704 1.92391 189.32201
8.33356 1.92382 189.312
8.4637403 1.92345 189.276
8.5948696 1.92331 189.26199
8.7300596 1.92406 189.33701
8.8634396 1.92441 189.37
8.9987202 1.92515 189.44299
9.1350403 1.92608 189.535
9.40697 1.92773 189.69701
9.5453701 1.92901 189.823
9.6866302 1.93083 190.002
9.8227701 1.93159 190.077
9.9587097 1.93229 190.146
10.0915 1.9323699 190.15401
10.2236 1.93232 190.149
10.3558 1.93229 190.146
10.4916 1.93292 190.20799
10.6265 1.93337 190.252
10.7615 1.93383 190.298
10.895 1.93402 190.31599
11.0302 1.93449 190.36301
11.1695 1.93565 190.47701
11.3051 1.93618 190.52901
11.4393 1.93644 190.55499
11.5766 1.93721 190.63
11.7183 1.93871 190.778
11.8607 1.94028 190.93201
12.0031 1.94181 191.08299
12.1452 1.94327 191.226
12.2867 1.94458 191.356
12.4254 1.9454401 191.44
12.5639 1.94626 191.521
12.6997 1.94663 191.55701
12.8373 1.94728 191.621
12.9763 1.94812 191.70399
13.1143 1.94879 191.77
13.2544 1.94977 191.866
13.394 1.95064 191.952
13.5365 1.95192 192.078
13.6773 1.95294 192.17799
13.9658 1.95587 192.467
14.1124 1.95761 192.638
14.2714 1.96104 192.97501
14.4132 1.96205 193.07401
14.5598 1.9637001 193.237
14.7009 1.96457 193.323
14.8384 1.96496 193.36099
14.9781 1.96562 193.42599
15.1223 1.96687 193.549
15.2661 1.96804 193.664
15.4128 1.96956 193.813
15.5681 1.97214 194.067
15.7197 1.97421 194.272
15.9121 1.98132 194.97099
16.108801 1.98886 195.713
16.2603 1.99072 195.896
16.400101 1.99113 195.937
16.5413 1.9917099 195.993
17.2111 2.02232 199.006
17.3643 2.02403 199.174
-6.8618698 2.10833 194.161
-6.7298102 2.1092999 194.25101
-6.5994101 2.1108501 194.39301
-6.4699998 2.1127801 194.571
-6.3370199 2.11361 194.647
-6.20261 2.1139801 194.68201
-6.0692401 2.1147299 194.75101
-5.9347801 2.1151299 194.787
-5.7996001 2.1152799 194.80099
-5.6663499 2.1161599 194.883
-5.5344701 2.11761 195.01601
-5.3999 2.1180799 195.05901
-5.2667198 2.1191299 195.15601
-5.1311302 2.11924 195.166
-4.99544 2.1193199 195.173
-4.8600998 2.11955 195.194
-4.7238102 2.11936 195.177
-4.5876698 2.11924 195.166
-4.31252 2.1175599 195.011
-4.1736102 2.1159599 194.864
-3.89885 2.11409 194.692
-3.7611401 2.11287 194.58
-3.6234 2.1115401 194.457
-3.48528 2.10988 194.304
-3.21032 2.1069701 194.036
-3.07178 2.1046 193.81799
-2.79533 2.0996399 193.36099
-2.6574399 2.09705 193.12199
-2.5188899 2.0936401 192.808
-2.3816299 2.0909801 192.563
-1.97215 2.08324 191.851
-1.70129 2.07866 191.429
-1.56647 2.0766001 191.239
-1.43212 2.0748301 191.076
-1.29817 2.07335 190.94
-1.16453 2.0720601 190.821
-1.03102 2.07073 190.698
-0.89750397 2.06897 190.536
-0.76424497 2.0673001 190.383
-0.63141501 2.06634 190.29401
-0.366092 2.0642099 190.09801
-0.23363701 2.06318 190.00301
0.0308729 2.06107 189.80901
0.16291 2.0598199 189.694
0.426835 2.0589199 189.61099
0.55870998 2.05847 189.569
0.690714 2.0585699 189.57899
0.82261503 2.0583899 189.562
0.95438701 2.05797 189.524
1.08613 2.0576 189.49001
1.21842 2.0582399 189.548
1.35054 2.0585001 189.57201
1.48216 2.0580001 189.526
1.74517 2.0569899 189.433
1.87655 2.0564401 189.383
2.0080099 2.0560601 189.347
2.1391201 2.0553801 189.285
2.27075 2.0552499 189.27299
2.4017799 2.05462 189.215
2.53297 2.0541899 189.175
2.66395 2.0536399 189.125
2.79603 2.0539501 189.153
2.9281001 2.05423 189.179
3.0608799 2.05495 189.246
3.1934199 2.05546 189.29201
3.326 2.0559599 189.338
3.45854 2.0564001 189.37801
3.5905499 2.0564899 189.38699
3.72247 2.05654 189.392
3.8543799 2.0565701 189.395
3.9849701 2.0559199 189.33501
4.11553 2.0553 189.278
4.2469702 2.05515 189.263
4.3779998 2.0548 189.23199
4.5081902 2.0541 189.16701
4.6381102 2.0533199 189.095
4.7685199 2.0527899 189.04601
4.8992701 2.0524299 189.013
5.0300102 2.0520799 188.981
5.1609802 2.0518501 188.96001
5.2917099 2.0515299 188.931
5.4232202 2.0515299 188.92999
5.5553398 2.0517499 188.951
5.68858 2.0523601 189.007
5.8218498 2.0529599 189.062
5.95648 2.0539999 189.158
6.0907102 2.0548601 189.237
6.2263598 2.05615 189.356
6.3612199 2.0571401 189.44701
6.4952302 2.0578101 189.508
6.6298699 2.05865 189.586
6.7638302 2.0592501 189.642
6.9012399 2.0608599 189.78999
7.03368 2.0609601 189.798
7.1652999 2.0608101 189.785
7.29564 2.0603099 189.739
7.4251399 2.0595901 189.673
7.5549102 2.05897 189.616
7.6844201 2.0583 189.554
7.8144202 2.05779 189.507
7.9438701 2.0571499 189.448
8.0727596 2.05639 189.37801
8.2049303 2.0564699 189.38499
8.3360395 2.0562899 189.369
8.4659796 2.05583 189.326
8.5977402 2.05582 189.326
8.7329397 2.0566199 189.399
8.8668299 2.05709 189.44299
9.0026398 2.0579901 189.52499
9.1381502 2.0588 189.60001
9.2735205 2.05955 189.66901
9.4122896 2.0610199 189.80499
9.6922503 2.0643699 190.112
9.8285303 2.0651901 190.188
9.9634504 2.0657101 190.237
10.095 2.0655301 190.22
10.2259 2.0652299 190.192
10.3597 2.0655 190.217
10.4945 2.0659699 190.25999
10.6297 2.0664999 190.30901
10.7648 2.0670099 190.356
10.8988 2.0673001 190.382
11.034 2.06779 190.42799
11.1724 2.0688701 190.52699
11.308 2.0694101 190.577
11.4431 2.06985 190.618
11.5816 2.0708899 190.713
11.7235 2.0725 190.86099
11.8678 2.0745001 191.045
12.1532 2.07781 191.351
12.2937 2.0790501 191.465
12.4316 2.0798199 191.536
12.5698 2.0806401 191.61099
12.7066 2.0811901 191.662
12.8441 2.0818601 191.72301
12.9826 2.0826499 191.79601
13.1188 2.08307 191.83501
13.4 2.0852699 192.03799
13.5415 2.0864899 192.14999
13.6841 2.0878401 192.274
13.8294 2.08956 192.433
13.9732 2.0910201 192.567
14.1289 2.09424 192.86301
14.2843 2.0973499 193.14999
14.4268 2.09851 193.257
14.7112 2.1007099 193.459
14.8474 2.10092 193.478
14.9865 2.1015301 193.535
15.1298 2.10273 193.645
15.2746 2.10411 193.772
15.42 2.10554 193.90401
15.5758 2.1083601 194.164
15.7371 2.11186 194.48599
15.9268 2.1190801 195.151
16.123301 2.12709 195.88901
16.2675 2.1281099 195.983
16.4112 2.12906 196.07001
16.5532 2.12976 196.13499
16.8328 2.14802 197.81599
17.062401 2.1596501 198.88699
17.2208 2.1621499 199.117
17.374901 2.1640899 199.29601
-6.7331901 2.2457299 194.34801
-6.60357 2.2476699 194.51601
-6.4709301 2.24863 194.599
-6.3390002 2.2498901 194.70799
-6.2041302 2.2501299 194.729
-6.0702901 2.2507701 194.784
-5.9373102 2.25176 194.87
-5.8035102 2.25248 194.933
-5.6701598 2.2534201 195.01401
-5.53759 2.25472 195.12601
-5.40346 2.25543 195.188
-5.27071 2.2567699 195.304
-5.13381 2.2563601 195.26801
-4.9984398 2.2566099 195.28999
-4.8628101 2.2567599 195.30299
-4.7259102 2.25631 195.26401
-4.58957 2.25611 195.24699
-4.45155 2.2550499 195.155
-4.1748099 2.2523401 194.92
-4.0377302 2.25157 194.853
-3.8994501 2.2500501 194.722
-3.7627101 2.2493401 194.661
-3.6248901 2.24791 194.537
-3.4873099 2.24652 194.41701
-3.3493199 2.24475 194.263
-3.21259 2.2437 194.173
-3.0741899 2.2413499 193.97
-2.93557 2.23862 193.733
-2.79721 2.2358201 193.491
-2.5218799 2.2305801 193.037
-2.3837299 2.2270601 192.73199
-2.24705 2.22458 192.51801
-2.11023 2.2216301 192.263
-1.83808 2.2162499 191.797
-1.70262 2.2137301 191.57899
-1.4331 2.20944 191.20799
-1.16521 2.20626 190.933
-1.03151 2.2045901 190.78799
-0.89800298 2.2029099 190.642
-0.76469302 2.2012 190.494
-0.63177001 2.20012 190.401
-0.498891 2.1986599 190.274
-0.233731 2.1963999 190.07899
-0.101366 2.1955099 190.002
0.163029 2.1935401 189.832
0.29512399 2.19313 189.79601
0.42720699 2.1928999 189.77699
0.55908197 2.1919701 189.69501
0.69111001 2.19188 189.688
0.82307398 2.1916399 189.66701
0.95494998 2.1912701 189.63499
1.08681 2.1909599 189.60899
1.21902 2.19134 189.642
1.3512599 2.1917 189.672
1.48291 2.1911299 189.623
1.61464 2.1907499 189.59
1.74573 2.18962 189.493
1.8774101 2.1893599 189.47
2.0087099 2.18871 189.41299
2.1398799 2.188 189.35201
2.2715199 2.18782 189.33701
2.40258 2.18714 189.278
2.53403 2.1868701 189.255
2.6654501 2.1866 189.231
2.7973199 2.1867099 189.241
2.9295499 2.1870799 189.272
3.06267 2.18805 189.356
3.19505 2.1884201 189.38901
3.3273799 2.18874 189.41701
3.4599199 2.1891799 189.45399
3.59147 2.1889701 189.436
3.7234199 2.1890099 189.44
3.85515 2.18893 189.433
3.9855399 2.1881101 189.362
4.11624 2.18752 189.311
4.2476001 2.18729 189.291
4.3786001 2.1869099 189.258
4.5087299 2.18612 189.19
4.6391301 2.1855099 189.136
4.7699199 2.1851001 189.101
4.90096 2.18484 189.078
5.03159 2.1844001 189.041
5.16292 2.1842899 189.03101
5.2943702 2.1842301 189.026
5.4254098 2.18401 189.007
5.5595002 2.1849999 189.092
5.8266501 2.18645 189.218
5.9617801 2.1877 189.326
6.0953498 2.1883299 189.381
6.23107 2.1896999 189.49899
6.3654499 2.1905401 189.57201
6.4993601 2.1912 189.629
6.6333399 2.1918499 189.686
6.76756 2.1925499 189.746
6.90343 2.1937499 189.85001
7.0348601 2.1935201 189.83
7.1656899 2.19312 189.795
7.2964602 2.1927099 189.75999
7.4263601 2.19206 189.70399
7.5560098 2.19136 189.64301
7.6853199 2.1905899 189.576
7.81497 2.18994 189.52
7.9450598 2.18943 189.476
8.07407 2.1886401 189.408
8.3379202 2.1886799 189.411
8.4679298 2.18821 189.37
8.6012802 2.18859 189.403
8.7370996 2.18959 189.49001
9.0053997 2.19067 189.584
9.1409302 2.19152 189.657
9.2774 2.19257 189.748
9.4166803 2.1942501 189.89301
9.5573797 2.1961999 190.062
9.6969995 2.19786 190.20599
9.8329401 2.1986499 190.274
9.9668102 2.1989601 190.30099
10.0978 2.1986401 190.27299
10.2277 2.1980901 190.22501
10.3623 2.19854 190.26401
10.4972 2.1990499 190.30901
10.6319 2.1995201 190.35001
10.7678 2.2002101 190.409
10.9028 2.2007 190.451
11.0375 2.2011199 190.48801
11.1737 2.2018399 190.55
11.3105 2.2026401 190.619
11.4483 2.20363 190.705
11.73 2.20667 190.968
11.8751 2.20893 191.164
12.0193 2.2109699 191.34
12.161 2.2125101 191.474
12.2991 2.2133901 191.55
12.4383 2.2144301 191.64
12.5756 2.2151201 191.69901
12.7119 2.21561 191.742
12.8501 2.2164299 191.813
12.9872 2.2170401 191.86501
13.1239 2.2175601 191.911
13.2662 2.2190101 192.036
13.4057 2.21998 192.119
13.5465 2.2211299 192.22
13.6913 2.2229099 192.37399
13.8374 2.22488 192.54401
13.9815 2.22648 192.68201
14.1488 2.23171 193.13499
14.2952 2.2335801 193.297
14.4378 2.2348299 193.405
14.5785 2.23575 193.48399
14.7186 2.2365699 193.55499
14.8573 2.23717 193.60699
14.9964 2.2378099 193.66299
15.1358 2.2385001 193.722
15.2802 2.2399001 193.843
15.4283 2.2418001 194.008
15.5806 2.2442901 194.224
15.7613 2.2507901 194.786
15.9745 2.26176 195.73599
16.132999 2.26489 196.007
16.2735 2.26546 196.056
16.4168 2.2664001 196.13699
16.5651 2.2679999 196.276
16.873501 2.2913301 198.295
17.0858 2.3013301 199.16
17.234501 2.30268 199.27699
17.3902 2.30493 199.47099
-6.73734 2.38257 194.468
-6.6059799 2.3840201 194.58701
-6.4742298 2.38539 194.698
-6.3409901 2.38625 194.769
-6.2066598 2.38674 194.808
-6.0729599 2.38749 194.87
-5.94099 2.3889699 194.991
-5.8080702 2.3901401 195.086
-5.6738501 2.39081 195.14101
-5.5415301 2.3923299 195.265
-5.4087801 2.3937399 195.38
-5.2740998 2.39434 195.429
-5.13727 2.39398 195.39999
-5.00248 2.3945701 195.448
-4.86517 2.39396 195.39799
-4.5917702 2.39326 195.34
-4.4534998 2.39203 195.241
-4.3158002 2.3910401 195.16
-4.17732 2.38954 195.037
-4.0390801 2.3880799 194.918
-3.9021201 2.38731 194.855
-3.7642 2.38587 194.73801
-3.6262901 2.38433 194.612
-3.35112 2.38134 194.368
-3.21421 2.3801501 194.271
-3.0760701 2.3779099 194.088
-2.7992401 2.3723099 193.631
-2.6612501 2.3694799 193.39999
-2.52389 2.36692 193.19099
-2.38587 2.36342 192.905
-2.1115699 2.3570499 192.38499
-1.97515 2.35408 192.14301
-1.83895 2.35095 191.888
-1.56846 2.3459799 191.48199
-1.43397 2.3440399 191.32401
-1.29986 2.34238 191.188
-1.03215 2.3389499 190.908
-0.898467 2.3369 190.741
-0.76513302 2.3352201 190.604
-0.49917001 2.33249 190.381
-0.36647001 2.33143 190.295
-0.101424 2.32919 190.11099
0.0309081 2.32813 190.02499
0.295288 2.3266201 189.901
0.42739001 2.3260801 189.858
0.559376 2.32532 189.795
0.69130498 2.32465 189.741
0.82323903 2.3242199 189.70599
0.95527101 2.3241401 189.69901
1.21955 2.32445 189.724
1.35162 2.32444 189.724
1.48327 2.32377 189.66901
1.61524 2.3236699 189.661
1.74613 2.32215 189.537
2.00928 2.32129 189.467
2.1407299 2.3208101 189.42799
2.2723401 2.32054 189.40601
2.40377 2.3201301 189.37199
2.53527 2.3198299 189.34801
2.66681 2.3195801 189.327
2.7992699 2.3201399 189.37199
3.06429 2.3211601 189.45599
3.19663 2.32149 189.483
3.32938 2.3220699 189.53
3.4615099 2.3222001 189.541
3.5924699 2.3215599 189.489
3.72418 2.32144 189.479
3.85553 2.3211 189.451
3.98558 2.32003 189.364
4.1171498 2.31989 189.35201
4.2477298 2.3192101 189.297
4.3793502 2.3191299 189.28999
4.5096102 2.3183501 189.22701
4.6403499 2.3178599 189.186
4.77104 2.3173599 189.146
4.9028602 2.31743 189.15199
5.0342398 2.3172901 189.14
5.1655402 2.3171301 189.127
5.2971401 2.3171 189.125
5.4286699 2.31705 189.12
5.5629902 2.3181601 189.211
5.6979299 2.3194699 189.31799
5.8305402 2.3197899 189.34399
5.9664302 2.3213799 189.474
6.0990801 2.32166 189.49699
6.2347002 2.32304 189.61
6.37043 2.32441 189.72099
6.50317 2.32464 189.74001
6.6372199 2.32533 189.79601
6.7715201 2.3260801 189.85699
6.9050899 2.32655 189.896
7.0355601 2.3259799 189.849
7.1657901 2.32535 189.798
7.2961402 2.32478 189.752
7.4271798 2.32445 189.72501
7.5561099 2.3234899 189.646
7.6853299 2.3226399 189.577
7.8159199 2.3222301 189.543
7.9459801 2.3216801 189.498
8.0768204 2.3213699 189.47301
8.2091503 2.32149 189.483
8.4706097 2.3208399 189.42999
8.6045599 2.3213999 189.476
8.74158 2.3227601 189.58701
8.8751001 2.3231599 189.619
9.0081596 2.3234301 189.642
9.1447096 2.32459 189.73599
9.2831097 2.32617 189.86501
9.4214296 2.3276899 189.989
9.5653801 2.3305399 190.22099
9.7030897 2.33181 190.325
9.8365698 2.3320401 190.34399
9.9691095 2.3320501 190.345
10.0992 2.33148 190.299
10.2304 2.3311901 190.27499
10.3654 2.3317699 190.32201
10.4994 2.3321099 190.35001
10.634 2.3325701 190.38699
10.7702 2.33336 190.452
10.9047 2.33376 190.485
11.0398 2.3343 190.528
11.1762 2.3350699 190.591
11.3139 2.3361299 190.677
11.5938 2.33902 190.914
11.7364 2.34096 191.07201
11.8833 2.3437099 191.29601
12.0282 2.3459799 191.48199
12.1681 2.34726 191.586
12.3065 2.3482201 191.66499
12.4444 2.3490701 191.73399
12.5823 2.34989 191.80099
12.7181 2.3503101 191.836
12.8555 2.3510201 191.89301
12.9923 2.3515999 191.94099
13.1319 2.35267 192.02699
13.2733 2.3540299 192.13901
13.4122 2.3549299 192.213
13.5518 2.3559501 192.295
13.6977 2.3580201 192.465
13.8453 2.3603401 192.65401
14.3092 2.3705399 193.48599
14.4484 2.3712699 193.54601
14.5888 2.37219 193.621
14.7285 2.3729801 193.686
14.8643 2.3731401 193.69901
15.1414 2.3743 193.793
15.2876 2.37606 193.937
15.4393 2.3786299 194.147
15.582 2.3797901 194.241
15.7806 2.38937 195.024
15.9942 2.4010601 195.97701
16.139799 2.40242 196.089
16.283899 2.4035499 196.181
16.422199 2.4038 196.201
16.9069 2.4342599 198.687
17.0975 2.44173 199.297
17.247801 2.4433601 199.42999
-6.7397199 2.5189099 194.537
-6.6090398 2.52072 194.677
-6.4778099 2.5223999 194.806
-6.3442602 2.5232201 194.87
-6.2111902 2.5242701 194.951
-6.07762 2.5251601 195.02
-5.9449601 2.52648 195.121
-5.8113899 2.5274601 195.198
-5.6782098 2.5286701 195.28999
-5.5450001 2.5299201 195.38699
-5.4108701 2.5308001 195.455
-5.2775998 2.53214 195.55901
-5.14148 2.53215 195.56
-5.0055599 2.53227 195.56799
-4.8674698 2.53125 195.49001
-4.7311001 2.5311 195.479
-4.5932202 2.5301099 195.40199
-4.4555001 2.52915 195.328
-4.3176899 2.52808 195.245
-4.1789999 2.5264101 195.116
-4.0406499 2.5248301 194.994
-3.9031401 2.52369 194.90601
-3.6275301 2.52075 194.679
-3.49053 2.51968 194.59599
-3.3532701 2.5183301 194.492
-3.21611 2.5169499 194.386
-2.9391899 2.51159 193.972
-2.8010499 2.50881 193.757
-2.66238 2.50524 193.481
-2.3866501 2.4986 192.968
-2.2493701 2.4953401 192.717
-2.1123099 2.49192 192.452
-1.9758101 2.48873 192.20599
-1.83951 2.4853699 191.946
-1.70421 2.4829299 191.758
-1.5691 2.48037 191.56
-1.43452 2.47826 191.397
-1.30044 2.47666 191.274
-1.1664799 2.4749501 191.142
-1.0326101 2.4730101 190.992
-0.89895803 2.4711101 190.845
-0.76558501 2.46944 190.716
-0.63239199 2.4677801 190.588
-0.366649 2.4651799 190.388
-0.233996 2.46398 190.295
0.0309237 2.46173 190.121
0.16319101 2.4604399 190.022
0.29544199 2.46017 190
0.42759001 2.45947 189.94701
0.55959302 2.4584701 189.869
0.69154698 2.45768 189.808
0.82354301 2.4572599 189.776
0.95566398 2.4572799 189.77699
1.0879101 2.4575801 189.8
1.22001 2.45751 189.795
1.352 2.4572799 189.77699
1.48357 2.4563701 189.707
1.61546 2.4561 189.686
1.74658 2.4547999 189.586
1.87852 2.4547501 189.582
2.0097599 2.45384 189.51199
2.1415401 2.45367 189.49899
2.2732201 2.4534199 189.479
2.4047 2.4529901 189.446
2.53619 2.4526 189.416
2.66798 2.4525399 189.411
2.8006899 2.45328 189.468
2.93308 2.4536901 189.5
3.0662601 2.4547 189.578
3.1981201 2.4546199 189.571
3.33042 2.45485 189.59
3.46227 2.4547601 189.58299
3.5929999 2.4539101 189.517
3.7246499 2.4537201 189.502
3.85588 2.45329 189.46899
3.98597 2.4521699 189.383
4.1177001 2.4521101 189.37801
4.2487001 2.4516301 189.34
4.3800001 2.45134 189.31799
4.5104299 2.4505899 189.261
4.6417198 2.45035 189.242
4.7729101 2.4500699 189.22
4.9050002 2.4502499 189.23399
5.03649 2.45013 189.22501
5.1680598 2.4500599 189.21899
5.3002601 2.45028 189.23599
5.4331698 2.4507999 189.27699
5.5678501 2.45209 189.37601
5.7013402 2.4528 189.431
5.8355398 2.4537799 189.507
5.9702601 2.4549301 189.59599
6.1038899 2.45559 189.647
6.2388902 2.4567599 189.737
6.3733702 2.45768 189.808
6.5076499 2.4584899 189.871
6.6409202 2.4589 189.90199
6.77354 2.4590499 189.914
6.9053798 2.45892 189.90401
7.0352201 2.4580901 189.84
7.16575 2.45754 189.797
7.2955699 2.4567599 189.737
7.4266701 2.45643 189.71201
7.5557699 2.4554701 189.63699
7.6854701 2.45473 189.58
7.8163199 2.45438 189.55299
7.9464598 2.45381 189.509
8.07792 2.45367 189.49899
8.2102499 2.4537899 189.508
8.3418903 2.4537101 189.50101
8.6086998 2.45456 189.567
8.74438 2.4556 189.647
8.8766899 2.4556799 189.653
9.0124702 2.4567001 189.73199
9.1494398 2.45801 189.834
9.2895803 2.46013 189.99699
9.43116 2.4625599 190.185
9.5705004 2.46435 190.323
9.7070999 2.46539 190.40401
9.84027 2.4655499 190.416
9.9719496 2.4653299 190.399
10.1017 2.4646499 190.34599
10.2321 2.46415 190.308
10.3673 2.4647801 190.356
10.5031 2.46557 190.41701
10.6366 2.46577 190.433
10.7723 2.46649 190.489
10.9065 2.4668601 190.517
11.0416 2.4674001 190.55901
11.181 2.4689 190.675
11.4585 2.4714799 190.87399
11.6018 2.4737101 191.04601
11.7479 2.47646 191.258
11.8947 2.47931 191.479
12.0397 2.48172 191.66499
12.1763 2.4823699 191.715
12.3141 2.4832599 191.783
12.5885 2.48471 191.896
12.7244 2.4851601 191.931
12.8622 2.48596 191.992
12.9991 2.4865899 192.041
13.1378 2.48753 192.114
13.2778 2.4886999 192.20399
13.4179 2.4898701 192.29401
13.5555 2.4905601 192.347
13.7021 2.4928801 192.526
13.8534 2.49598 192.76601
14.1769 2.5057199 193.51801
14.3164 2.5065601 193.58299
14.4575 2.5076699 193.66901
14.5993 2.5088601 193.75999
14.736 2.5091801 193.785
14.8736 2.50963 193.82001
15.0108 2.51 193.849
15.1516 2.5109701 193.924
15.2985 2.5129299 194.075
15.4487 2.5153799 194.26401
15.6137 2.52019 194.636
15.8281 2.53282 195.61099
16.001101 2.53865 196.062
16.145 2.53983 196.15199
16.287701 2.5407901 196.22701
16.7216 2.5654399 198.131
16.9501 2.57921 199.194
17.107401 2.5820401 199.412
17.2635 2.58462 199.612
-6.74265 2.65557 194.62199
-6.6118202 2.6574399 194.759
-6.48138 2.65955 194.91299
-6.3485198 2.6607299 195
-6.21736 2.6626999 195.144
-6.0827098 2.6632199 195.183
-5.9492698 2.66431 195.263
-5.8154802 2.6652999 195.33501
-5.6833501 2.6671 195.467
-5.54953 2.66819 195.547
-5.4169698 2.66995 195.67599
-5.2818098 2.67049 195.715
-5.14431 2.6698401 195.668
-5.0079498 2.66976 195.662
-4.8699498 2.6687801 195.59
-4.7336302 2.66868 195.58299
-4.5952601 2.6673999 195.489
-4.45719 2.6662199 195.40199
-4.3188901 2.66482 195.3
-4.1802902 2.66313 195.17599
-3.90482 2.6605899 194.99001
-3.7673399 2.6593699 194.89999
-3.6292701 2.65762 194.772
-3.49246 2.6566899 194.70399
-3.35517 2.6552999 194.60201
-3.21772 2.6536701 194.483
-3.07955 2.6512799 194.308
-2.9400799 2.6475 194.03
-2.6628301 2.64046 193.51401
-2.5253799 2.6375999 193.30499
-2.38709 2.6335001 193.005
-2.2497499 2.6300099 192.74899
-2.1126201 2.6263399 192.48
-1.9759901 2.6228499 192.224
-1.83972 2.61936 191.968
-1.70461 2.6171 191.802
-1.5696599 2.6147201 191.62801
-1.43515 2.6127 191.48
-1.16697 2.60917 191.22099
-0.89929599 2.60502 190.91701
-0.632662 2.60164 190.67
-0.49967501 2.6003301 190.57401
-0.36683801 2.5991399 190.48599
-0.234099 2.5976801 190.379
-0.101529 2.59672 190.30901
0.030939 2.5954399 190.215
0.163269 2.5940299 190.112
0.29559699 2.5938699 190.10001
0.42780501 2.59308 190.04201
0.55981702 2.5917499 189.94501
0.69187403 2.5911 189.897
0.82397699 2.5908101 189.87601
0.95601499 2.59042 189.847
1.08815 2.5903399 189.841
1.22025 2.59023 189.83299
1.35227 2.5899701 189.814
1.48393 2.5891299 189.75301
1.61589 2.5889201 189.737
1.74708 2.58759 189.64
1.87903 2.5874901 189.633
2.0102401 2.5864601 189.55701
2.14202 2.5862501 189.541
2.2740901 2.58638 189.55099
2.4058299 2.5861499 189.534
2.53737 2.5857401 189.504
2.6695001 2.5859399 189.519
2.8024399 2.58687 189.58701
2.93507 2.58743 189.62801
3.0680001 2.5882199 189.686
3.19943 2.5877199 189.649
3.3315001 2.58775 189.651
3.46298 2.5873401 189.621
3.59389 2.58655 189.564
3.72509 2.58602 189.52499
3.8566501 2.5857699 189.506
3.9869499 2.5847099 189.429
4.1187301 2.5846601 189.425
4.2498798 2.5842199 189.39301
4.38134 2.5839901 189.37601
4.5121198 2.58339 189.332
4.64362 2.58322 189.32001
4.9081202 2.5836999 189.355
5.0391598 2.5833001 189.325
5.3059902 2.5848701 189.44099
5.4395099 2.58565 189.498
5.5732598 2.5864999 189.56
5.7058101 2.5867701 189.58
5.8408399 2.58812 189.679
5.9746299 2.5888801 189.73399
6.10781 2.58935 189.76801
6.2431302 2.5906799 189.866
6.3772202 2.59145 189.923
6.51087 2.59203 189.965
6.6433501 2.5921199 189.972
6.77455 2.5917201 189.942
6.9054599 2.5912199 189.90601
7.0350699 2.59027 189.836
7.1658802 2.5897801 189.8
7.2958598 2.58902 189.744
7.4268098 2.5886199 189.715
7.5557699 2.5875599 189.63699
7.6860399 2.5869701 189.59399
7.8180599 2.5869801 189.595
7.9482598 2.5864 189.552
8.0801001 2.58636 189.55
8.2122898 2.5864401 189.55499
8.3442602 2.5864401 189.55499
8.4765396 2.58653 189.562
8.6128101 2.5878301 189.657
8.7486496 2.5889599 189.74001
8.8827496 2.58954 189.783
9.0164604 2.5899999 189.81599
9.1542702 2.5915999 189.93401
9.2972202 2.5946 190.153
9.4381704 2.5969601 190.326
9.5773096 2.5987599 190.459
9.7130203 2.5996001 190.52
9.8447104 2.59935 190.50101
9.9752398 2.5987999 190.46201
10.1043 2.5979099 190.396
10.2346 2.5973301 190.353
10.3706 2.5982001 190.41701
10.5067 2.5990701 190.481
10.6404 2.59935 190.502
10.7761 2.60008 190.55499
10.9102 2.60044 190.582
11.0475 2.6015201 190.661
11.3251 2.60431 190.86501
11.4672 2.60641 191.019
11.6116 2.6089699 191.20599
11.763 2.61303 191.504
11.9078 2.6155601 191.69
12.3224 2.6185901 191.912
12.4603 2.6194999 191.979
12.5947 2.6196599 191.99001
12.7312 2.62025 192.033
12.8676 2.62079 192.073
13.004 2.62134 192.11301
13.1421 2.6222 192.177
13.2837 2.62375 192.28999
13.4232 2.62484 192.37
13.5644 2.6262701 192.474
13.866 2.6326399 192.94099
14.0441 2.6408801 193.54601
14.1859 2.64219 193.642
14.328 2.6435499 193.741
14.4698 2.64481 193.83299
14.6078 2.64535 193.873
14.7439 2.64556 193.88901
14.8814 2.6459999 193.92101
15.0177 2.64625 193.939
15.1597 2.64747 194.028
15.3099 2.65008 194.21899
15.4532 2.6514699 194.32201
15.8573 2.67399 195.972
16.005199 2.67592 196.11301
16.146601 2.6767199 196.172
16.2924 2.67823 196.283
16.443899 2.68066 196.461
16.7633 2.71018 198.62399
16.972 2.7214799 199.452
17.1262 2.7239201 199.631
-6.7458501 2.79245 194.714
-6.61518 2.7945099 194.858
-6.4843402 2.7965901 195.002
-6.3530102 2.7985301 195.138
-6.2216902 2.80057 195.28
-6.0871501 2.8012199 195.325
-5.9547801 2.8029201 195.444
-5.8218799 2.80444 195.55
-5.6877999 2.80545 195.62
-5.5548902 2.8071001 195.73599
-5.4223099 2.80901 195.869
-5.2862902 2.80918 195.881
-5.14779 2.8080201 195.8
-5.0103502 2.80739 195.756
-4.7355099 2.80603 195.661
-4.5971398 2.8047099 195.569
-4.4587598 2.8033099 195.47099
-4.3202901 2.8017499 195.36301
-4.1824999 2.80056 195.27901
-4.0447602 2.79932 195.19299
-3.9068501 2.7978599 195.091
-3.76863 2.7960801 194.967
-3.63099 2.7946 194.864
-3.4939001 2.7934599 194.784
-3.3564601 2.79193 194.677
-3.08023 2.78724 194.351
-2.94065 2.78319 194.06799
-2.80264 2.7802999 193.867
-2.66396 2.7764201 193.59599
-2.52542 2.77228 193.308
-2.38744 2.7683401 193.033
-2.24984 2.76438 192.757
-2.11273 2.76056 192.49001
-1.9761 2.7568901 192.235
-1.83991 2.75335 191.98801
-1.70491 2.7511799 191.836
-1.43568 2.7470901 191.55099
-1.30161 2.7455699 191.44501
-1.16741 2.7434001 191.29401
-1.03343 2.74124 191.14301
-0.899755 2.7393899 191.01401
-0.76619399 2.7372999 190.868
-0.63290501 2.7355001 190.743
-0.49991199 2.73437 190.664
-0.36698499 2.7329099 190.562
-0.234203 2.7314799 190.463
-0.101573 2.7304499 190.39101
0.030951601 2.7290399 190.293
0.16336299 2.72802 190.222
0.29573801 2.7275801 190.19099
0.42800599 2.7267301 190.132
0.56011701 2.7255199 190.047
0.82428098 2.7240701 189.946
0.95632797 2.7235401 189.909
1.08848 2.7234099 189.89999
1.2205 2.723 189.87199
1.35258 2.72281 189.858
1.48419 2.7217801 189.787
1.61624 2.7216599 189.778
1.74736 2.7201099 189.67
1.8794301 2.72016 189.673
2.01106 2.71961 189.63499
2.1431301 2.7196801 189.64
2.27492 2.7194099 189.621
2.5385599 2.7190101 189.593
2.8041401 2.7205601 189.701
2.9365799 2.7209201 189.726
3.06883 2.7210701 189.737
3.2002001 2.72047 189.69501
3.3322799 2.72049 189.696
3.4637699 2.7200401 189.66499
3.5948 2.71928 189.612
3.7260201 2.7187099 189.57201
3.85746 2.7183299 189.54601
3.9881001 2.7174399 189.48399
4.1196198 2.71719 189.466
4.2511001 2.7169199 189.44701
4.3829899 2.7169199 189.448
4.5146098 2.7167599 189.436
4.6461101 2.7165401 189.42101
4.7787099 2.71696 189.45
4.9120598 2.7177701 189.507
5.0438499 2.7177 189.502
5.17732 2.7185099 189.558
5.3115201 2.71966 189.638
5.4440098 2.7198901 189.655
5.5778799 2.7207899 189.717
5.7098699 2.7207501 189.715
5.8446398 2.7220099 189.802
5.97786 2.7225101 189.83701
6.1110401 2.72296 189.869
6.2462101 2.7242701 189.96001
6.3800402 2.7249401 190.007
6.5131602 2.7253001 190.032
6.6447001 2.7249899 190.00999
6.7751698 2.7242601 189.96001
6.9061399 2.7237699 189.925
7.03618 2.7229199 189.866
7.1657901 2.7219501 189.798
7.2957101 2.7211201 189.741
7.42695 2.7208099 189.71899
7.5561299 2.71977 189.646
7.6871099 2.7193999 189.621
7.8192902 2.71946 189.625
7.9499898 2.7190199 189.59399
8.0827904 2.71929 189.61301
8.2151299 2.7193999 189.621
8.3470497 2.7193799 189.619
8.4801102 2.7197101 189.642
8.6163597 2.72105 189.735
8.8882504 2.7234199 189.901
9.0222597 2.7239599 189.938
9.1628904 2.72646 190.11301
9.30371 2.72895 190.286
9.4439001 2.73118 190.442
9.7183504 2.7337999 190.62399
9.8489799 2.7332201 190.584
9.9780302 2.7322299 190.515
10.1079 2.7314799 190.463
10.2392 2.7311499 190.439
10.3753 2.73207 190.504
10.5104 2.7327001 190.548
10.6448 2.73316 190.58
10.7793 2.7336199 190.612
10.9163 2.73471 190.688
11.1915 2.7370901 190.854
11.3322 2.7389801 190.98599
11.4756 2.7414601 191.159
11.6253 2.7453799 191.43201
11.7785 2.7500601 191.758
11.9211 2.7521601 191.905
12.0579 2.7528801 191.955
12.1942 2.75348 191.99699
12.3322 2.7544501 192.064
12.4679 2.75488 192.095
12.6012 2.7548001 192.089
12.7371 2.75528 192.12199
12.8726 2.75564 192.147
13.0072 2.75583 192.161
13.1484 2.75739 192.269
13.2884 2.7586601 192.358
13.4278 2.7597899 192.437
13.5706 2.76158 192.562
13.7219 2.7650499 192.804
13.9026 2.7743299 193.451
14.1985 2.77953 193.813
14.3407 2.7809501 193.912
14.4776 2.7813101 193.938
14.6138 2.7815299 193.953
14.7528 2.7823 194.006
14.887 2.78213 193.994
15.0212 2.78197 193.983
15.1691 2.7843299 194.14799
15.3155 2.7863801 194.291
15.4853 2.7925999 194.72501
15.8641 2.8117001 196.056
16.008101 2.81301 196.147
16.149799 2.81392 196.211
16.293301 2.8151 196.29401
16.798901 2.8545799 199.04601
16.9814 2.86198 199.562
-6.6181002 2.93153 194.944
-6.4869099 2.9335699 195.08
-6.3551202 2.93543 195.203
-6.09061 2.93894 195.436
-5.9588399 2.9410501 195.577
-5.82693 2.9431901 195.71899
-5.6925902 2.94418 195.785
-5.5606198 2.94647 195.938
-5.42524 2.9470301 195.974
-5.2876801 2.9463999 195.93201
-5.1504002 2.9458899 195.899
-5.0126801 2.9451001 195.847
-4.87464 2.9440701 195.778
-4.7371898 2.9433601 195.73
-4.59868 2.94191 195.634
-4.4608598 2.94084 195.563
-4.3221302 2.93908 195.446
-4.1840701 2.93767 195.35201
-4.0460601 2.9362099 195.255
-3.90851 2.9349899 195.174
-3.77017 2.9330699 195.04601
-3.63258 2.9316101 194.94901
-3.3578999 2.9287801 194.761
-3.2190399 2.9258101 194.563
-3.08056 2.92292 194.371
-2.94135 2.91905 194.114
-2.80264 2.9153299 193.866
-2.6645601 2.9119201 193.64
-2.38764 2.9030299 193.048
-2.25015 2.89904 192.784
-2.11288 2.89483 192.504
-1.97622 2.89096 192.246
-1.84021 2.8875401 192.019
-1.70505 2.88504 191.85201
-1.57003 2.88236 191.674
-1.43602 2.8812001 191.597
-1.30188 2.8795099 191.485
-1.1677999 2.8776 191.358
-1.03376 2.8752999 191.20399
-0.899966 2.8731101 191.05901
-0.76645601 2.8712201 190.93401
-0.63322002 2.8697801 190.838
-0.50013798 2.86847 190.75
-0.36714399 2.8668799 190.645
-0.2343 2.86534 190.54201
-0.101601 2.8638599 190.444
0.0309607 2.8624301 190.349
0.163436 2.8617899 190.306
0.42817101 2.86026 190.205
0.560368 2.85917 190.132
0.69247401 2.85812 190.062
0.82449901 2.85712 189.996
0.956599 2.8566301 189.963
1.08875 2.85639 189.94701
1.22076 2.85586 189.912
1.35286 2.8556499 189.89799
1.48454 2.85465 189.83099
1.6164401 2.8541999 189.802
1.7478 2.8529501 189.718
1.87999 2.8531301 189.73
2.0118101 2.8527501 189.705
2.1438501 2.85272 189.703
2.2756901 2.8524401 189.685
2.4079599 2.8527 189.702
2.5399001 2.8525701 189.69299
2.67309 2.85379 189.774
2.8057201 2.85431 189.808
2.93751 2.8539801 189.787
3.06937 2.85373 189.771
3.3331201 2.8533299 189.743
3.46435 2.8526199 189.69701
3.59547 2.8518801 189.647
3.72701 2.85151 189.623
3.8583801 2.8510399 189.591
3.9897001 2.8505599 189.56
4.1209898 2.8501 189.52901
4.2530899 2.8501999 189.536
4.3851299 2.85027 189.53999
4.5169802 2.8501999 189.536
4.6491299 2.8503301 189.54401
4.7818499 2.85079 189.575
4.91575 2.8519101 189.649
5.0476799 2.85185 189.646
5.18084 2.8524799 189.687
5.3148198 2.8535199 189.756
5.4482799 2.8542299 189.80299
5.5816598 2.8548601 189.84599
5.7137899 2.8548501 189.845
5.8474302 2.8555701 189.89301
5.98031 2.8559 189.91499
6.11343 2.8563299 189.94299
6.2485499 2.85765 190.03101
6.3821301 2.8582201 190.069
6.5149102 2.8584299 190.08299
6.6455002 2.8576801 190.033
6.77598 2.85692 189.98199
6.9067101 2.8562901 189.94
7.0368199 2.8554299 189.883
7.1662002 2.85431 189.80901
7.2957101 2.8532801 189.741
7.4267902 2.8529 189.715
7.5563402 2.8519399 189.65199
7.6873498 2.8515699 189.627
7.8192401 2.8515201 189.623
7.95155 2.85163 189.631
8.0852499 2.8522301 189.67
8.2181396 2.85252 189.69
8.3501396 2.85251 189.689
8.4841805 2.8531799 189.733
8.7556896 2.8555701 189.89301
8.8915501 2.85675 189.97099
9.0316601 2.8592401 190.136
9.1725502 2.8619001 190.313
9.3119097 2.8640101 190.45399
9.5884104 2.8673999 190.679
9.7213497 2.86746 190.683
9.8515196 2.8667099 190.633
9.9807396 2.86571 190.567
10.1124 2.8654399 190.549
10.2444 2.8652401 190.535
10.3793 2.86586 190.577
10.5145 2.86655 190.623
10.6497 2.8672199 190.668
10.9209 2.8687301 190.767
11.0593 2.8701899 190.86501
11.1983 2.8717501 190.96899
11.3413 2.87432 191.13901
11.4897 2.87814 191.39301
11.7929 2.88715 191.992
11.9301 2.88801 192.05
12.0656 2.8884399 192.078
12.2024 2.8891599 192.12601
12.3382 2.8896301 192.158
12.4725 2.88976 192.16701
12.6063 2.88977 192.16701
12.7417 2.8901401 192.19099
13.1546 2.8926599 192.35899
13.2962 2.89434 192.47099
13.4367 2.89574 192.564
13.5793 2.8975699 192.685
13.7395 2.90308 193.052
13.9241 2.9135799 193.75
14.0667 2.91519 193.85699
14.208 2.9164901 193.944
14.3484 2.9175701 194.01601
14.4836 2.9175999 194.017
14.759 2.9186399 194.08701
14.8911 2.9180601 194.048
15.03 2.9187901 194.097
15.1778 2.9212301 194.259
15.7211 2.9470401 195.97501
15.8678 2.94894 196.10201
16.0103 2.9500401 196.175
16.156401 2.9517801 196.291
16.2987 2.95281 196.35899
16.609301 2.98405 198.437
16.8328 2.9992599 199.448
16.9949 3.00336 199.72099
-6.6210599 3.06868 195.03101
-6.4897199 3.07078 195.164
-6.3579702 3.0727701 195.291
-6.2266502 3.0750599 195.436
-6.0954599 3.0775101 195.592
-5.9625702 3.0792 195.7
-5.8306398 3.08148 195.84399
-5.69841 3.0836999 195.985
-5.5656199 3.0857201 196.114
-5.42871 3.0855 196.10001
-5.2910299 3.08482 196.05701
-5.1536398 3.08428 196.022
-4.87744 3.0822101 195.89
-4.7397599 3.0813601 195.836
-4.4635701 3.0789199 195.68201
-4.3241501 3.0766499 195.537
-4.0478101 3.07355 195.34
-3.9099901 3.0720999 195.248
-3.7715399 3.07004 195.117
-3.6335599 3.0682299 195.002
-3.4966099 3.0671799 194.935
-3.3587699 3.0652299 194.812
-3.2196701 3.0619099 194.601
-3.0811 3.05884 194.40601
-2.94244 3.0553899 194.186
-2.8034899 3.05129 193.925
-2.3880501 3.0380099 193.082
-2.2507601 3.0341401 192.83501
-2.1133299 3.0295601 192.545
-1.8408 3.02226 192.08099
-1.7053699 3.0192399 191.888
-1.57048 3.0167201 191.728
-1.43629 3.0152199 191.633
-1.30211 3.0134201 191.519
-1.16793 3.01122 191.379
-1.03399 3.00915 191.24699
-0.90028 3.0072401 191.12601
-0.76674598 3.0053501 191.006
-0.63348001 3.0039401 190.916
-0.50035101 3.00261 190.83099
-0.36728901 3.00085 190.72
-0.234393 2.9992399 190.617
0.0309736 2.9962499 190.42799
0.163499 2.9955001 190.38
0.295993 2.99511 190.355
0.42832601 2.99383 190.274
0.56055802 2.99262 190.19701
0.69270599 2.9914999 190.12601
0.82471901 2.9902599 190.047
0.956891 2.98985 190.021
1.08899 2.9893601 189.989
1.22102 2.98878 189.952
1.35311 2.9884501 189.93201
1.48487 2.98753 189.873
1.61663 2.9867499 189.82401
1.74843 2.98616 189.786
1.88041 2.98595 189.77299
2.0123501 2.9856901 189.756
2.14451 2.98578 189.76199
2.27667 2.9858401 189.76601
2.40908 2.9862299 189.791
2.54158 2.98667 189.81799
2.6742599 2.9872701 189.85699
2.80638 2.98722 189.853
2.93821 2.9868701 189.83099
3.0701101 2.98663 189.81599
3.2018499 2.9862599 189.79201
3.3338201 2.98612 189.784
3.4651 2.9854 189.73801
3.5964 2.98474 189.696
3.7279401 2.9843299 189.67
3.8593199 2.98382 189.638
3.99124 2.9837501 189.633
4.1231098 2.98365 189.62601
4.2554998 2.9839101 189.64301
4.38761 2.9839699 189.647
4.5198398 2.9841101 189.65601
4.6524801 2.9844999 189.681
4.7845302 2.9844999 189.681
4.91821 2.9854901 189.744
5.05089 2.9858401 189.76601
5.1838999 2.9863701 189.799
5.3176799 2.9872899 189.858
5.4506798 2.98774 189.88699
5.5840502 2.98838 189.927
5.7164302 2.9884601 189.933
5.8495898 2.98894 189.963
5.9822698 2.9891601 189.97701
6.1157298 2.9897499 190.01401
6.2509899 2.9911799 190.105
6.3836298 2.9913199 190.114
6.5156798 2.9911799 190.105
6.6455498 2.9900701 190.035
6.7762699 2.9893701 189.99001
6.9064798 2.9884901 189.93401
7.03654 2.98757 189.87601
7.1656799 2.9863 189.795
7.2958798 2.9855101 189.745
7.4272499 2.98522 189.72701
7.55758 2.98453 189.683
7.6886802 2.9841599 189.659
7.8218298 2.9845901 189.686
7.95367 2.9845099 189.681
8.0862703 2.98472 189.694
8.6253204 2.9884701 189.933
8.7614698 2.98981 190.01801
8.8978796 2.9912 190.106
9.0404596 2.99459 190.32201
9.1809597 2.9972 190.48801
9.3199701 2.9992599 190.619
9.4587402 3.0011899 190.741
9.5920095 3.0013399 190.75101
9.7245197 3.00125 190.745
9.8549995 3.00055 190.701
10.2489 2.9992599 190.619
10.5201 3.0009201 190.724
10.6544 3.0013499 190.752
10.7892 3.00193 190.78799
10.9265 3.00315 190.866
11.068 3.0054801 191.01401
11.2037 3.0062101 191.061
11.353 3.01055 191.336
11.5082 3.01632 191.703
11.6624 3.0216899 192.04401
12.073 3.02408 192.196
12.2091 3.0246501 192.23199
12.3439 3.0248699 192.24699
12.4772 3.02475 192.239
12.6125 3.02509 192.261
12.7462 3.02507 192.259
12.8817 3.02545 192.283
13.0222 3.0269899 192.381
13.1604 3.0279801 192.444
13.4434 3.03139 192.661
13.7872 3.04808 193.72099
13.9343 3.05075 193.89101
14.0739 3.05177 193.95599
14.3528 3.0536499 194.075
14.4913 3.0543599 194.121
14.627 3.0544901 194.129
14.7635 3.05477 194.146
14.8992 3.0548699 194.153
15.0396 3.0559399 194.22099
15.1809 3.0571599 194.299
15.3637 3.0666499 194.90199
15.5746 3.0815301 195.84801
15.7263 3.0845499 196.03999
15.8698 3.0859101 196.12601
16.010799 3.0867801 196.181
16.1593 3.0890601 196.326
16.3365 3.09674 196.814
16.6394 3.1279199 198.79601
16.8519 3.1417401 199.674
17.013901 3.1459999 199.94501
-6.4935498 3.2086101 195.27901
-6.36237 3.21101 195.42599
-6.2316198 3.2137401 195.592
-6.09974 3.2160001 195.729
-5.9665198 3.2176399 195.82899
-5.83359 3.2195201 195.94299
-5.7011399 3.22175 196.07899
-5.5679202 3.22365 196.19501
-5.4329 3.22457 196.25101
