# .PCD v0.7 - Point Cloud Data file format
VERSION 0.7
FIELDS x y z
SIZE 4 4 4
TYPE F F F
COUNT 1 1 1
WIDTH 1806
HEIGHT 1
VIEWPOINT 0 0 0 1 0 0 0
POINTS 1806
DATA ascii
5.6591501 0.994008 188.02901
5.78863 0.99376398 187.983
5.9189801 0.99367702 187.967
6.0492201 0.993577 187.948
6.44034 0.99336201 187.907
6.5722098 0.99352199 187.937
6.83742 0.99403602 188.035
6.9704299 0.99433798 188.092
7.1018701 0.994407 188.105
7.2350302 0.99471098 188.162
7.3678999 0.99496502 188.21001
7.5004001 0.99516201 188.248
7.6326199 0.99531299 188.276
7.7647099 0.99544501 188.30099
7.89606 0.99547797 188.30701
8.03022 0.99585903 188.38
8.1647701 0.99627399 188.45799
8.4306297 0.99668503 188.536
8.5627003 0.99677998 188.554
8.6936598 0.996746 188.547
8.8252897 0.99678802 188.55499
9.0914803 0.99718899 188.631
9.22647 0.99758703 188.70599
9.35882 0.99769098 188.726
9.4918499 0.99786502 188.759
9.6267405 0.998227 188.827
9.7617102 0.99858499 188.895
9.8976898 0.99903798 188.981
10.0324 0.99935001 189.03999
10.1687 0.99981803 189.129
10.3035 1.00012 189.185
10.4379 1.00038 189.235
10.5715 1.00055 189.267
10.7064 1.00085 189.32401
10.8399 1.0010099 189.353
10.9763 1.00142 189.43201
11.1109 1.00167 189.479
11.2469 1.00203 189.547
11.3815 1.00227 189.592
11.5173 1.0026 189.655
11.653 1.00291 189.714
11.7884 1.0032001 189.76801
11.9251 1.00359 189.841
12.0608 1.00387 189.896
12.1981 1.0043 189.97701
12.3348 1.00466 190.045
12.4718 1.00504 190.116
12.6114 1.00562 190.226
12.7496 1.00608 190.313
12.8885 1.00657 190.407
13.0279 1.00711 190.507
13.1656 1.00749 190.58
13.307 1.00816 190.70599
13.4473 1.00872 190.812
13.5861 1.00916 190.896
13.7276 1.0097899 191.015
13.8772 1.0110101 191.246
14.0227 1.0118999 191.41299
14.1681 1.0127701 191.578
14.3109 1.01344 191.70399
14.4547 1.01416 191.841
14.6003 1.015 192
14.7519 1.01624 192.23399
14.8986 1.01711 192.39999
15.0448 1.01794 192.55701
15.1868 1.0184799 192.658
15.3304 1.01911 192.77699
15.4841 1.02039 193.02
15.6405 1.02183 193.293
16.052999 1.03104 195.034
16.210699 1.0324399 195.299
16.364401 1.03356 195.511
16.518999 1.03471 195.729
16.6675 1.03548 195.87399
16.8181 1.03635 196.039
16.965799 1.03704 196.16901
17.1117 1.0376101 196.27699
17.2575 1.03816 196.381
17.4181 1.03958 196.64999
-8.1153002 1.16697 195.049
-7.9843402 1.16768 195.16701
-7.8508501 1.16803 195.226
-7.71737 1.1684 195.28799
-7.5841799 1.16883 195.35899
-7.4498701 1.16909 195.403
-7.3146801 1.16923 195.425
-7.17836 1.16918 195.418
-7.04357 1.16939 195.453
-6.9092698 1.16969 195.50301
-6.7751598 1.17003 195.56
-6.6416898 1.1705 195.63901
-6.50664 1.17071 195.673
-6.3719902 1.17099 195.72099
-6.2392402 1.1716501 195.83099
-6.1030502 1.17168 195.83501
-4.2620001 1.15308 192.72701
-4.1221099 1.15148 192.46001
-3.9827001 1.14991 192.198
-3.8434899 1.1483001 191.927
-3.7040701 1.1465 191.627
-3.5664999 1.14516 191.403
-3.4291 1.14378 191.172
-3.29246 1.14254 190.965
-3.1564801 1.14144 190.782
-3.0211799 1.1404999 190.625
-2.8862 1.1396101 190.47501
-2.7512801 1.1386499 190.314
-2.6166699 1.13772 190.16
-2.4823 1.1368099 190.007
-2.3481801 1.13592 189.858
-2.21455 1.13517 189.733
-2.0810399 1.13439 189.603
-1.94785 1.13369 189.487
-1.81512 1.13318 189.40199
-1.6825 1.13267 189.315
-1.5499099 1.13208 189.217
-1.41756 1.13159 189.134
-1.15308 1.13046 188.946
-1.02152 1.13043 188.94099
-0.88979101 1.13018 188.899
-0.75804001 1.12981 188.83701
-0.36359501 1.1296 188.802
-0.232131 1.12945 188.778
-0.100702 1.12933 188.758
0.030693199 1.12901 188.70399
0.29326701 1.1284 188.60201
0.424548 1.12836 188.595
0.55585599 1.1284 188.601
0.68715501 1.1284 188.60201
0.81848902 1.12845 188.61099
0.94996399 1.12866 188.645
1.08119 1.1285599 188.629
1.21263 1.12868 188.64799
1.34391 1.1286401 188.642
1.47526 1.12866 188.645
1.60691 1.12888 188.683
1.7385499 1.12907 188.714
1.8697 1.12894 188.692
2.00052 1.12863 188.64101
2.1314199 1.12841 188.604
2.2618501 1.12798 188.53101
2.39255 1.12772 188.48801
2.5225699 1.12718 188.39799
2.6522999 1.12658 188.297
2.7818301 1.12595 188.19299
2.91167 1.1255 188.117
3.0420201 1.12527 188.07899
3.1719899 1.12493 188.022
3.3020999 1.12467 187.978
3.43238 1.12448 187.946
3.56355 1.12458 187.963
3.6944001 1.12458 187.963
3.8263299 1.1249 188.01601
3.95732 1.12493 188.021
4.0890799 1.12517 188.061
4.22018 1.12521 188.069
4.3523302 1.12553 188.12199
4.4843302 1.12579 188.166
4.6178198 1.1264 188.26801
4.7498498 1.1266299 188.306
4.8839202 1.1273201 188.42101
5.0152001 1.12734 188.425
5.1447701 1.12699 188.366
5.2747402 1.12674 188.325
5.4031901 1.1261899 188.233
5.5329299 1.12593 188.188
5.66149 1.12544 188.10699
5.7904301 1.1250499 188.04201
5.9205399 1.1249 188.01601
6.0507102 1.12476 187.994
6.1810198 1.12466 187.97701
6.3110099 1.12451 187.951
6.7057199 1.1248699 188.01199
6.8382001 1.12514 188.056
6.9716001 1.12554 188.123
7.1037102 1.12572 188.15401
7.2361202 1.12594 188.19099
7.3692002 1.12626 188.244
7.5021801 1.12655 188.29201
7.6353002 1.12685 188.342
7.7674899 1.127 188.369
7.8995299 1.12713 188.39
8.1675901 1.12793 188.52299
8.2998104 1.12806 188.54601
8.4314203 1.1281101 188.554
8.5632801 1.12819 188.567
8.6943598 1.12816 188.563
8.8262196 1.12824 188.575
8.9609804 1.12868 188.64799
9.0935802 1.12884 188.675
9.2276897 1.12918 188.731
9.35991 1.12928 188.748
9.4934902 1.12954 188.79201
9.6265001 1.12972 188.823
9.7622004 1.13021 188.905
10.0352 1.13133 189.092
10.1713 1.13184 189.177
10.3055 1.13212 189.22301
10.4407 1.13249 189.286
10.5748 1.13273 189.326
10.7086 1.1329499 189.36301
10.8424 1.13315 189.396
10.9792 1.13366 189.48199
11.1131 1.13387 189.515
11.2486 1.13423 189.576
11.3848 1.13465 189.646
11.5195 1.13491 189.69099
11.6547 1.1352299 189.743
11.7901 1.13554 189.79401
11.9283 1.13612 189.89101
12.0638 1.13643 189.944
12.201 1.1368999 190.022
12.338 1.1373301 190.09399
12.4758 1.13783 190.17799
12.6147 1.13842 190.276
12.7531 1.13895 190.364
12.8918 1.13949 190.455
13.0298 1.1399699 190.535
13.3111 1.14134 190.765
13.4511 1.14195 190.866
13.5904 1.14248 190.95599
13.7333 1.14332 191.09599
13.88 1.1444401 191.283
14.0251 1.14542 191.44701
14.1711 1.14645 191.619
14.3154 1.14732 191.76401
14.4573 1.14799 191.877
14.6042 1.14904 192.05099
14.7608 1.15082 192.35001
14.907 1.15177 192.508
15.0517 1.15259 192.645
15.1941 1.1532201 192.75
15.3387 1.1540101 192.882
15.4908 1.1553299 193.103
15.6485 1.15705 193.39101
16.224001 1.16942 195.45799
16.374001 1.1704201 195.625
16.525101 1.1714799 195.802
16.8242 1.1733299 196.11099
16.9715 1.17407 196.23599
17.1185 1.17478 196.355
17.270901 1.17585 196.533
-7.9872499 1.30409 195.23801
-7.8530598 1.3043801 195.28101
-7.7193799 1.30476 195.339
-7.45328 1.3057899 195.492
-7.3174701 1.30584 195.5
-7.1805601 1.3056901 195.478
-7.0464101 1.3060499 195.53101
-6.9123201 1.30644 195.589
-6.7766399 1.30653 195.603
-6.6447101 1.3073601 195.72701
-6.50946 1.30756 195.758
-6.3758998 1.30812 195.841
-6.24156 1.30854 195.90401
-6.1059198 1.3087 195.92799
-5.9703302 1.30888 195.95399
-3.70719 1.28105 191.789
-3.5688601 1.27933 191.53
-3.4307401 1.27754 191.263
-3.158 1.27494 190.87399
-3.02227 1.2737401 190.694
-2.8875899 1.27289 190.56599
-2.6179399 1.27079 190.252
-2.4833901 1.2697099 190.091
-2.3492401 1.26873 189.944
-2.21542 1.26782 189.808
-2.0820701 1.2670799 189.69701
-1.81609 1.26578 189.502
-1.68321 1.2650599 189.395
-1.55027 1.2641701 189.26199
-1.41809 1.26379 189.205
-1.28562 1.26305 189.093
-1.15339 1.2624 188.996
-1.02183 1.26241 188.998
-0.89014697 1.26226 188.974
-0.758461 1.26204 188.942
-0.62697297 1.26213 188.955
-0.49538001 1.262 188.936
-0.36382601 1.2618999 188.922
-0.100763 1.26157 188.871
0.030706801 1.2610101 188.787
0.16206899 1.26052 188.715
0.293383 1.26026 188.67599
0.68739402 1.26021 188.668
0.81890798 1.26047 188.70799
0.95015901 1.2603199 188.68401
1.08161 1.26043 188.701
1.21315 1.26061 188.728
1.34438 1.26047 188.707
1.47602 1.2607 188.741
1.60789 1.26108 188.798
1.73914 1.26094 188.778
1.87033 1.26079 188.755
2.0011401 1.26042 188.69901
2.1320601 1.26015 188.66
2.2624199 1.2596101 188.578
2.3934801 1.2595 188.562
2.5227101 1.25848 188.409
2.65272 1.25793 188.327
2.7824399 1.25731 188.23399
2.91223 1.25677 188.153
3.0427799 1.25659 188.12601
3.1725099 1.2561001 188.05299
3.30285 1.25588 188.02
3.4331501 1.25567 187.98801
3.56428 1.25576 188.002
3.69542 1.25585 188.015
3.8271401 1.25612 188.056
3.9584501 1.25625 188.075
4.0905399 1.2566 188.12801
4.22192 1.25673 188.147
4.35428 1.25713 188.207
4.4874001 1.25771 188.295
4.62006 1.25814 188.35899
4.7535901 1.25878 188.45399
4.8862801 1.2591701 188.51199
5.0177002 1.25921 188.519
5.1480699 1.2589999 188.487
5.27738 1.25855 188.41901
5.4059601 1.2579401 188.32899
5.5356202 1.25762 188.28
5.6633201 1.25687 188.168
5.7933102 1.25665 188.13499
5.9218402 1.25613 188.058
6.0524101 1.25606 188.047
6.18296 1.25599 188.036
6.3129401 1.2558 188.009
6.44314 1.25567 187.989
6.5748501 1.25583 188.013
6.70717 1.2561001 188.05299
6.83921 1.25631 188.084
6.97194 1.2566299 188.132
7.1044698 1.25691 188.174
7.2372899 1.25722 188.22099
7.3701601 1.25754 188.26801
7.5050402 1.25818 188.364
7.63796 1.2584701 188.408
7.9043498 1.25912 188.505
8.0366096 1.25928 188.52901
8.1693001 1.2595 188.563
8.3014803 1.25964 188.58299
8.4335499 1.25976 188.601
8.5647602 1.25975 188.599
8.6965199 1.25982 188.60899
8.8293695 1.26004 188.642
8.9638205 1.26048 188.70799
9.0959196 1.2605799 188.72301
9.2291698 1.26083 188.76199
9.3615303 1.26096 188.78101
9.4947004 1.2612 188.81599
9.6274996 1.2613699 188.842
9.7642298 1.26205 188.944
9.8998804 1.26258 189.02299
10.0368 1.26325 189.12399
10.1747 1.26403 189.24001
10.3093 1.26437 189.291
10.4436 1.26468 189.338
10.5783 1.26503 189.39
10.8461 1.26551 189.461
10.9815 1.26592 189.522
11.117 1.26632 189.58299
11.2513 1.26658 189.62199
11.3874 1.26703 189.69
11.5228 1.2674 189.745
11.6569 1.26762 189.77699
11.7931 1.26806 189.843
11.9311 1.26868 189.936
12.0679 1.26916 190.009
12.2048 1.26964 190.08
12.3414 1.27008 190.147
12.6193 1.27141 190.345
12.756 1.27183 190.408
12.895 1.27247 190.50301
13.033 1.27299 190.582
13.1745 1.27384 190.70799
13.3165 1.27473 190.842
13.4563 1.27538 190.94
13.5955 1.27598 191.02901
13.739 1.27695 191.174
13.8844 1.27809 191.345
14.0298 1.2792 191.511
14.1772 1.28047 191.701
14.3201 1.28131 191.827
14.4604 1.2819099 191.91701
14.6168 1.28391 192.217
14.7715 1.28573 192.489
14.919 1.2869 192.664
15.0629 1.28774 192.789
15.2058 1.28847 192.89999
15.3497 1.2892801 193.02
15.4986 1.29048 193.201
15.6528 1.29211 193.444
15.8612 1.29814 194.34801
16.0816 1.30505 195.382
16.383699 1.3074501 195.741
16.5329 1.30848 195.895
16.681801 1.30946 196.04201
16.8305 1.31041 196.18401
16.9786 1.3113101 196.31799
17.126699 1.31218 196.44901
17.2791 1.31337 196.627
-7.9884801 1.4403 195.26801
-7.8564401 1.44102 195.36501
-7.7242799 1.44174 195.463
-7.5897598 1.44203 195.502
-7.4566498 1.44261 195.58099
-7.3204498 1.4426 195.58
-7.1842198 1.44258 195.577
-7.0486798 1.44271 195.59399
-6.9151101 1.4432499 195.668
-6.7797098 1.4434299 195.69099
-6.6472802 1.44425 195.80299
-6.51302 1.44471 195.86501
-6.3794298 1.44533 195.95
-6.2449999 1.4457901 196.01199
-6.10814 1.44569 195.99899
-5.9727802 1.44596 196.034
-3.2960999 1.41012 191.17599
-3.15962 1.40861 190.97099
-3.0239 1.40732 190.79601
-2.8891001 1.40636 190.666
-2.75418 1.4052401 190.515
-2.6192 1.40398 190.343
-2.3504801 1.40177 190.04401
-2.21666 1.40081 189.914
-2.08304 1.39986 189.785
-1.94959 1.39891 189.65601
-1.81663 1.39819 189.55901
-1.68387 1.39753 189.46899
-1.55093 1.39659 189.342
-1.41868 1.39616 189.284
-1.28623 1.39543 189.18401
-1.1540101 1.3947901 189.097
-1.02235 1.39477 189.095
-0.75895703 1.39455 189.065
-0.62742603 1.39475 189.092
-0.495745 1.3946199 189.075
-0.36409101 1.39451 189.06
-0.232434 1.39425 189.02499
-0.100809 1.39376 188.95799
0.030719399 1.39307 188.86501
0.162147 1.39264 188.806
0.29350799 1.39227 188.756
0.42484799 1.3920701 188.728
0.55626398 1.39215 188.739
0.68761998 1.3920799 188.73
0.819157 1.3923301 188.765
1.08207 1.39245 188.78101
1.21372 1.39272 188.817
1.34501 1.39256 188.79601
1.60855 1.39315 188.87601
1.73972 1.3929 188.841
1.87091 1.3926899 188.814
2.0016601 1.39221 188.748
2.13254 1.39187 188.702
2.2629399 1.3912801 188.62199
2.39395 1.3911099 188.599
2.5232501 1.39001 188.45
2.6533 1.38941 188.369
2.7830901 1.3887399 188.278
2.91293 1.38815 188.198
3.0434501 1.38793 188.16701
3.1733799 1.38746 188.105
3.3035901 1.38715 188.062
3.4344201 1.38712 188.058
3.5652699 1.38709 188.054
3.6965201 1.38722 188.071
3.82847 1.3875901 188.12199
3.9598 1.38772 188.13901
4.0920701 1.38816 188.19901
4.2242098 1.38853 188.24899
4.3565202 1.38893 188.30299
4.4896498 1.38956 188.38901
4.6223898 1.39004 188.45399
4.7564301 1.39087 188.567
4.8886299 1.39114 188.603
5.01963 1.39106 188.592
5.1504698 1.39094 188.575
5.2793498 1.39031 188.49001
5.4085102 1.38978 188.418
5.5378199 1.38931 188.355
5.6656399 1.3885 188.245
5.79456 1.38799 188.17599
5.9239602 1.38762 188.125
6.0542402 1.38746 188.104
6.1846499 1.3873399 188.088
6.3141999 1.38703 188.04601
6.44486 1.3869801 188.039
6.5769801 1.3872401 188.07401
6.70894 1.38745 188.103
6.8408399 1.38764 188.129
6.9730802 1.3879 188.16299
7.1055002 1.38818 188.201
7.2387199 1.3886 188.258
7.3722701 1.38907 188.32201
7.5072498 1.3897901 188.42
7.6409302 1.39024 188.481
7.7740598 1.39059 188.528
7.9078102 1.39103 188.588
8.0393696 1.39108 188.59399
8.1715403 1.39123 188.61501
8.3028498 1.39123 188.614
8.43577 1.39149 188.651
8.5667601 1.39144 188.64301
8.6984901 1.3915 188.65199
8.8316002 1.39178 188.69
8.9656 1.39219 188.746
9.0983295 1.3924 188.77299
9.2310495 1.39259 188.8
9.3627195 1.39263 188.80499
9.4959497 1.39289 188.841
9.6293402 1.39317 188.87801
9.9021702 1.39456 189.067
10.0389 1.39527 189.16299
10.1771 1.39616 189.283
10.3119 1.39658 189.34
10.581 1.3973 189.437
10.7139 1.3974299 189.45599
10.8489 1.39783 189.50999
10.9841 1.39825 189.567
11.1189 1.39861 189.616
11.2537 1.39896 189.662
11.3903 1.39951 189.73801
11.5255 1.3998899 189.789
11.6609 1.40029 189.843
11.7972 1.4007699 189.909
11.936 1.4015501 190.01401
12.0724 1.40203 190.07899
12.2098 1.4026099 190.158
12.4842 1.4037 190.306
12.6234 1.4044501 190.407
12.7606 1.40496 190.47701
13.0396 1.40645 190.679
13.1797 1.40723 190.784
13.3215 1.40818 190.91299
13.4606 1.40883 191.00101
13.6012 1.40962 191.108
13.7446 1.4106899 191.25301
13.8864 1.41157 191.37199
14.032 1.41281 191.541
14.1792 1.4141901 191.728
14.3207 1.4149801 191.83501
14.4675 1.41628 192.011
14.6262 1.41871 192.341
14.7847 1.42107 192.661
14.9289 1.42203 192.791
15.0742 1.42308 192.93401
15.2152 1.42371 193.01801
15.3608 1.42475 193.16
15.5072 1.42585 193.308
15.6705 1.42846 193.66299
15.9076 1.43771 194.916
16.0917 1.44205 195.504
16.241699 1.44328 195.672
16.3901 1.44435 195.817
16.5385 1.44541 195.96001
16.688999 1.44663 196.12601
16.8354 1.44748 196.241
16.9839 1.4485 196.379
17.1369 1.44987 196.56599
-7.8582001 1.57745 195.409
-7.7275701 1.57855 195.54601
-7.5931602 1.57891 195.59
-7.4593301 1.5793999 195.651
-7.32408 1.57961 195.677
-7.1895399 1.57998 195.722
-7.0525699 1.57982 195.702
-6.9186702 1.58035 195.769
-6.78302 1.5805 195.787
-6.65028 1.58135 195.892
-6.5163498 1.5819401 195.965
-6.3817801 1.5824 196.022
-6.2477198 1.58301 196.097
-6.1108398 1.5829099 196.086
-5.9753399 1.58318 196.118
-5.8389001 1.5832 196.12199
-3.4358001 1.54626 191.545
-3.29812 1.54423 191.29401
-3.0258 1.54118 190.916
-2.7557199 1.5388 190.621
-2.4863701 1.53636 190.319
-2.2178099 1.53389 190.013
-1.95059 1.53179 189.75301
-1.81758 1.53102 189.657
-1.6848201 1.53036 189.576
-1.5518399 1.52937 189.453
-1.41924 1.5286 189.35699
-1.28679 1.52786 189.26601
-1.15464 1.5273401 189.201
-1.02299 1.5274301 189.213
-0.891141 1.52721 189.186
-0.759471 1.52727 189.194
-0.62793499 1.5276901 189.245
-0.49611801 1.52746 189.217
-0.23257001 1.5268101 189.13499
-0.100861 1.52617 189.05701
0.030735601 1.52542 188.964
0.16221499 1.52478 188.884
0.29361901 1.52432 188.828
0.42504001 1.52421 188.814
0.55645901 1.52414 188.806
0.68790901 1.52417 188.80901
0.81948501 1.52442 188.84
0.95086199 1.52429 188.82401
1.08252 1.52459 188.86099
1.21425 1.5249 188.899
1.34575 1.5249 188.899
1.4777 1.52536 188.95599
1.60927 1.52538 188.959
1.74037 1.525 188.912
1.87137 1.52458 188.85899
2.0021999 1.5240901 188.799
2.1329801 1.52362 188.741
2.2635 1.5230401 188.668
2.3944399 1.5227799 188.63699
2.5237501 1.52157 188.48599
2.6539299 1.52098 188.414
2.78356 1.5201401 188.31
2.91379 1.51969 188.254
3.0441699 1.5193501 188.21201
3.1744499 1.5190001 188.168
3.30463 1.51862 188.12199
3.4356201 1.51864 188.123
3.5662799 1.51851 188.108
3.6981299 1.51888 188.153
3.8300099 1.51923 188.19701
3.96139 1.51937 188.215
4.0945601 1.52017 188.313
4.2271199 1.52069 188.37801
4.3597298 1.52121 188.442
4.4924998 1.52175 188.509
4.6252198 1.52224 188.569
4.7589698 1.52303 188.668
4.8910599 1.52326 188.696
5.0221901 1.52319 188.688
5.1528301 1.52298 188.662
5.2820702 1.52238 188.58701
5.4110699 1.5217299 188.507
5.5396199 1.521 188.416
5.66746 1.5201 188.30499
5.7961001 1.51946 188.226
5.9256301 1.51908 188.17799
6.0562901 1.51899 188.168
6.1865902 1.51882 188.146
6.3157701 1.5183901 188.093
6.4464402 1.51833 188.08501
6.5788798 1.51867 188.12801
6.7103701 1.51879 188.14301
6.84273 1.5191 188.181
6.9748302 1.51934 188.21001
7.10673 1.5195301 188.23399
7.2405 1.5201 188.30499
7.5103798 1.52166 188.498
7.6440601 1.52215 188.55901
7.7780299 1.52268 188.62399
7.9117498 1.52314 188.68201
8.0427303 1.52307 188.673
8.1736097 1.52299 188.662
8.3047895 1.5229599 188.659
8.4378204 1.52326 188.696
8.5686102 1.52316 188.68401
8.7003403 1.52323 188.692
8.8344402 1.5237 188.75101
8.9675598 1.52399 188.787
9.1003904 1.52423 188.81599
9.2326403 1.5243599 188.83299
9.3643303 1.5244 188.83701
9.49753 1.52468 188.87199
9.6317196 1.52511 188.925
9.7691898 1.52604 189.03999
9.9057798 1.5268101 189.13499
10.0423 1.52754 189.22701
10.18 1.52844 189.338
10.3149 1.5289 189.395
10.4498 1.52934 189.44901
10.5842 1.5297101 189.496
10.7183 1.53002 189.533
10.8527 1.53037 189.577
10.9881 1.53084 189.63499
11.1215 1.5310301 189.659
11.2569 1.53149 189.716
11.3933 1.53207 189.78799
11.5287 1.53251 189.842
11.664 1.53293 189.894
11.8021 1.53369 189.98801
11.9416 1.53462 190.103
12.0771 1.53503 190.15401
12.2153 1.53576 190.244
12.3534 1.53646 190.332
12.4885 1.53677 190.37
12.6295 1.53781 190.49899
12.7695 1.5387 190.60899
12.9088 1.53949 190.707
13.0463 1.54005 190.776
13.1861 1.5408601 190.87601
13.3277 1.54187 191.002
13.466 1.54249 191.078
13.6057 1.54324 191.17101
13.7476 1.54423 191.29401
13.8896 1.54522 191.416
14.0349 1.54655 191.58099
14.1814 1.54798 191.758
14.3248 1.54905 191.89101
14.4746 1.55079 192.106
14.6366 1.55378 192.47701
14.7986 1.55673 192.843
14.9444 1.55793 192.991
15.0849 1.55857 193.07001
15.2263 1.5592901 193.159
15.3706 1.56028 193.282
15.5139 1.56117 193.392
15.6918 1.56548 193.927
15.9236 1.57506 195.11301
16.102699 1.5793 195.638
16.2505 1.58043 195.778
16.397499 1.58147 195.907
16.546301 1.5826499 196.05299
16.694799 1.5837899 196.19501
16.843 1.58488 196.32899
16.992599 1.58609 196.479
17.1453 1.58757 196.662
-7.9952402 1.71377 195.43401
-7.8631701 1.71464 195.533
-7.7294102 1.71516 195.592
-7.5961299 1.7158099 195.666
-7.46206 1.71631 195.72301
-7.3268399 1.71655 195.75
-7.1932702 1.71719 195.82401
-7.0556798 1.71689 195.789
-6.9208698 1.71726 195.83099
-6.78686 1.71784 195.89799
-6.6531701 1.71854 195.97701
-6.3844399 1.71965 196.104
-6.24966 1.72013 196.158
-6.1132498 1.72017 196.16299
-5.9763899 1.72008 196.153
-5.84062 1.72031 196.179
-3.1645899 1.6772799 191.272
-2.89255 1.67396 190.894
-2.7575099 1.67266 190.745
-2.6221399 1.67101 190.55701
-2.4876001 1.66975 190.41299
-2.3531699 1.66842 190.26199
-2.2189701 1.6671 190.112
-2.08515 1.66593 189.978
-1.9518501 1.66503 189.87601
-1.81846 1.6639301 189.74899
-1.68575 1.6633199 189.681
-1.55265 1.6622 189.552
-1.4201601 1.66157 189.481
-1.15545 1.66028 189.334
-1.02363 1.66026 189.33099
-0.89182901 1.66026 189.332
-0.76013398 1.6605 189.35899
-0.62843001 1.66081 189.394
-0.49645999 1.6604 189.347
-0.364557 1.66 189.302
-0.232723 1.6596299 189.259
-0.100915 1.65874 189.158
0.030752299 1.65794 189.067
0.16230001 1.65721 188.983
0.293751 1.65659 188.91299
0.42519599 1.65633 188.883
0.55669099 1.65634 188.884
0.68819898 1.6563801 188.88901
0.819821 1.6566401 188.918
0.95129597 1.65657 188.91
1.08302 1.65689 188.94701
1.2148 1.65723 188.98599
1.34645 1.65734 188.998
1.47841 1.65777 189.048
1.60982 1.65757 189.024
1.74097 1.65715 188.976
1.8717901 1.6565 188.90199
2.0028999 1.65618 188.86501
2.13357 1.65555 188.79401
2.2642 1.65496 188.72701
2.39481 1.65443 188.666
2.5244 1.65328 188.535
2.6545601 1.6526 188.45799
2.7841201 1.65163 188.34801
2.9144399 1.65118 188.29601
3.0450101 1.6509 188.26401
3.17539 1.65055 188.224
3.3059101 1.65029 188.194
3.43716 1.6504101 188.20799
3.69923 1.65042 188.209
3.83143 1.65093 188.267
3.9633801 1.6513 188.30901
4.0971098 1.65236 188.42999
4.2298002 1.65295 188.498
4.3627501 1.65361 188.573
4.49511 1.6540101 188.618
4.6278501 1.65452 188.67599
4.7615399 1.6553299 188.769
4.8930702 1.65537 188.774
5.0243101 1.65532 188.767
5.1552501 1.65516 188.75
5.28478 1.65458 188.68401
5.4127898 1.65356 188.567
5.5414701 1.65279 188.479
5.6693902 1.65183 188.369
5.7981801 1.65116 188.29401
5.9275198 1.6506701 188.23801
6.0580802 1.65054 188.22301
6.1876602 1.65016 188.179
6.31743 1.64984 188.14301
6.44806 1.64975 188.132
6.5805702 1.65013 188.17599
6.7115202 1.65012 188.175
6.8441701 1.65052 188.22
6.9765801 1.6508501 188.258
7.1082501 1.65099 188.274
7.2421598 1.6516401 188.34801
7.3782401 1.65275 188.47501
7.5135002 1.65364 188.576
7.6472998 1.6541899 188.63901
7.78122 1.65474 188.702
7.9147801 1.6552 188.754
8.0459099 1.65514 188.748
8.1757498 1.65483 188.71201
8.3070602 1.65481 188.71001
8.4398203 1.65509 188.741
8.5707102 1.65499 188.73
8.7027502 1.65512 188.744
8.8363304 1.65552 188.791
8.9690599 1.65576 188.81799
9.1018801 1.65601 188.847
9.2340202 1.65614 188.86099
9.36625 1.65627 188.87601
9.4996099 1.6566 188.91299
9.7715197 1.6581 189.08501
9.9081497 1.65894 189.181
10.0459 1.65994 189.295
10.1838 1.66093 189.408
10.3201 1.66166 189.491
10.4546 1.66206 189.537
10.589 1.66246 189.582
10.7237 1.6628799 189.629
10.8573 1.66312 189.658
10.9928 1.66364 189.717
11.1249 1.66365 189.718
11.2603 1.66414 189.774
11.3963 1.66471 189.838
11.5319 1.66521 189.895
11.6682 1.6657799 189.961
11.8068 1.66669 190.065
11.9454 1.66756 190.164
12.0835 1.66835 190.254
12.2216 1.66912 190.342
12.3593 1.66983 190.423
12.4972 1.67055 190.504
12.6386 1.6717 190.63499
12.778 1.67258 190.73599
12.9161 1.67327 190.815
13.0545 1.67399 190.896
13.1955 1.67501 191.013
13.3346 1.6757801 191.101
13.4723 1.67636 191.168
13.6111 1.67707 191.248
13.7518 1.67799 191.353
13.8932 1.67898 191.466
14.038 1.6803499 191.62199
14.185 1.68196 191.806
14.33 1.68332 191.961
14.4831 1.68558 192.21899
14.6505 1.68945 192.66
14.8141 1.69283 193.045
14.9578 1.6938699 193.16499
15.0961 1.6943001 193.213
15.2352 1.69481 193.272
15.377 1.6956199 193.36301
15.5193 1.69646 193.459
15.9525 1.7140599 195.467
16.1108 1.7164299 195.737
16.261101 1.7179199 195.90601
16.406401 1.71885 196.013
16.555599 1.72018 196.164
16.703699 1.72136 196.299
16.851299 1.7224801 196.427
17.000999 1.72379 196.576
17.155199 1.72554 196.77499
-7.8694 1.8523 195.687
-7.7328601 1.8522201 195.679
-7.6001601 1.85308 195.77
-7.4657001 1.8535399 195.81799
-7.3298302 1.85365 195.83
-7.1968098 1.8545001 195.92
-7.0610099 1.85466 195.937
-6.9246302 1.85466 195.937
-6.7906399 1.85532 196.007
-6.6559601 1.8558199 196.05901
-6.5217099 1.85645 196.12601
-6.3860602 1.85671 196.153
-6.2507401 1.85708 196.192
-6.1142702 1.85711 196.196
-5.97859 1.85739 196.22501
-5.8421998 1.85746 196.23199
-5.7053599 1.85738 196.224
-3.44203 1.81638 191.892
-3.3039 1.81388 191.629
-3.03019 1.80976 191.19299
-2.8942299 1.80797 191.005
-2.75898 1.8064801 190.847
-2.6236401 1.80477 190.666
-2.3543799 1.80187 190.35899
-2.0865099 1.79943 190.10201
-1.95281 1.79817 189.96899
-1.81929 1.7969199 189.83701
-1.6863 1.79602 189.742
-1.55338 1.7950701 189.64101
-1.42092 1.79451 189.582
-1.28835 1.79369 189.496
-1.15627 1.79343 189.468
-1.02452 1.79369 189.496
-0.89255899 1.79361 189.487
-0.76068503 1.79369 189.496
-0.62884903 1.7939301 189.521
-0.36476699 1.7928801 189.41
-0.232832 1.7923 189.34801
-0.100964 1.79136 189.24899
0.030768 1.79055 189.164
0.16237999 1.78973 189.077
0.29388699 1.789 189
0.55689198 1.78855 188.952
0.68847102 1.78865 188.963
0.82016599 1.78898 188.99699
0.95180601 1.7891001 189.011
1.08364 1.78953 189.056
1.21543 1.78979 189.084
1.34707 1.78979 189.084
1.4789 1.79004 189.11
1.61031 1.78978 189.082
1.74141 1.78923 189.024
1.87219 1.78846 188.94299
2.0034201 1.78819 188.914
2.1342001 1.78757 188.849
2.26459 1.78672 188.759
2.3949399 1.78593 188.67599
2.5248001 1.78488 188.565
2.6551001 1.78423 188.496
2.78476 1.78324 188.39101
2.9154501 1.78295 188.36099
3.0458801 1.78255 188.31799
3.1763799 1.78221 188.283
3.30757 1.78227 188.289
3.4389501 1.7824301 188.306
3.5692 1.78201 188.26199
3.70101 1.78237 188.3
3.83371 1.78312 188.379
3.9660201 1.78365 188.435
4.0996099 1.7847 188.545
4.2325802 1.7854199 188.62199
4.3652802 1.78599 188.68201
4.4974599 1.78632 188.717
4.63029 1.78688 188.776
4.7642899 1.78785 188.879
4.8955002 1.78775 188.868
5.0260901 1.78743 188.834
5.1571698 1.7873 188.82001
5.2869201 1.7867301 188.75999
5.41467 1.78552 188.633
5.54357 1.78474 188.55
5.671 1.78354 188.423
5.7999902 1.7828701 188.35201
5.9291401 1.78227 188.28999
6.0591898 1.78197 188.258
6.1894302 1.78174 188.233
6.3187199 1.78125 188.181
6.4495602 1.7812001 188.17599
6.5823498 1.78168 188.22701
6.7133398 1.78167 188.226
6.8459802 1.7820899 188.27
6.9784398 1.78245 188.308
7.2446399 1.78344 188.412
7.3811798 1.78474 188.55
7.5170002 1.78582 188.664
7.6507001 1.78637 188.72301
7.7844501 1.78692 188.78
7.91787 1.78737 188.828
8.1778002 1.78672 188.759
8.3101597 1.78692 188.78101
8.4423599 1.7870899 188.798
8.5728703 1.7869 188.778
8.7051601 1.78708 188.797
8.83811 1.78738 188.82899
8.9711199 1.78769 188.862
9.1041203 1.78799 188.89301
9.2354298 1.78795 188.89
9.3681602 1.78819 188.914
9.5017004 1.78857 188.955
9.6362896 1.78914 189.015
9.7739496 1.7902499 189.132
9.9103603 1.79111 189.22301
10.05 1.79251 189.371
10.1882 1.79364 189.49001
10.325 1.79448 189.57899
10.4598 1.79497 189.631
10.5939 1.79533 189.66901
10.7278 1.79564 189.701
10.8605 1.79574 189.713
10.9962 1.79634 189.776
11.1293 1.79651 189.793
11.2648 1.79704 189.849
11.4012 1.7977 189.92
11.5361 1.79812 189.964
11.6733 1.79888 190.04401
11.811 1.79971 190.132
11.9487 1.8005199 190.217
12.0878 1.80151 190.32201
12.2273 1.80255 190.43201
12.3668 1.80356 190.53799
12.5072 1.80467 190.65601
12.6487 1.80593 190.78799
12.7863 1.80661 190.86
12.9261 1.80757 190.96201
13.0652 1.80843 191.052
13.2028 1.80905 191.118
13.3391 1.8095 191.166
13.4777 1.81024 191.244
13.6171 1.81107 191.332
13.7575 1.8120199 191.43201
13.8973 1.81288 191.52299
14.0414 1.81427 191.66901
14.1902 1.8162301 191.877
14.3356 1.81774 192.036
14.4953 1.821 192.381
14.6704 1.82612 192.922
14.8262 1.8287801 193.203
14.9665 1.8294899 193.27699
15.1037 1.8298 193.311
15.242 1.83025 193.358
15.3856 1.8313299 193.472
15.5222 1.83155 193.495
15.9722 1.8525 195.70799
16.120701 1.85391 195.858
16.268299 1.85519 195.993
16.417 1.85657 196.13901
16.5644 1.85779 196.26801
16.711599 1.85897 196.392
16.8599 1.86025 196.52699
17.0075 1.86143 196.65199
17.1614 1.8632801 196.847
-7.8721399 1.98929 195.756
-7.7383399 1.98993 195.81799
-7.6058602 1.99093 195.91701
-7.4703598 1.99117 195.94099
-7.3336802 1.9911 195.933
-7.2007899 1.99207 196.028
-7.06636 1.99264 196.08501
-6.9292002 1.99245 196.067
-6.7937598 1.9927599 196.097
-6.6591601 1.99334 196.153
-6.5247798 1.994 196.21899
-6.3888202 1.9942 196.23801
-6.2530298 1.99446 196.26401
-6.1170502 1.99467 196.285
-5.9807501 1.99479 196.29601
-5.8440499 1.9947701 196.295
-5.7065902 1.99449 196.267
-5.56848 1.99396 196.214
-3.17028 1.94723 191.616
-3.0328701 1.9446501 191.362
-2.8965399 1.94256 191.157
-2.7606499 1.94058 190.96201
-2.4904799 1.93724 190.634
-2.3556399 1.9355 190.46201
-2.2213199 1.93399 190.313
-1.95356 1.93124 190.04201
-1.82063 1.93056 189.976
-1.6874 1.92944 189.866
-1.55424 1.92822 189.746
-1.2891999 1.92695 189.62
-1.15714 1.92686 189.61099
-1.02511 1.92679 189.605
-0.893076 1.9267 189.59599
-0.76111501 1.92677 189.603
-0.62910599 1.92672 189.59801
-0.49701899 1.92634 189.561
-0.23292901 1.92498 189.427
-0.101004 1.9239399 189.32401
0.16245501 1.92231 189.164
0.29402101 1.92152 189.086
0.42558599 1.9212101 189.056
0.55709898 1.9208699 189.02299
0.68877703 1.9211299 189.047
0.82055801 1.92154 189.088
0.95235598 1.92187 189.12
1.08419 1.9221801 189.151
1.21603 1.9224401 189.177
1.34755 1.92219 189.15199
1.6105601 1.92177 189.11099
1.74176 1.92128 189.063
1.87237 1.9202501 188.961
2.0037301 1.9200701 188.944
2.1345601 1.91944 188.881
2.2650399 1.9185801 188.797
2.3952301 1.91759 188.7
2.5252199 1.91655 188.597
2.6554201 1.91576 188.519
2.7853899 1.91488 188.433
2.9163001 1.91471 188.416
3.04691 1.91436 188.381
3.17746 1.914 188.347
3.3088801 1.91418 188.364
3.4405799 1.91449 188.395
3.5713 1.91427 188.37199
3.70333 1.91473 188.418
3.83618 1.91556 188.5
3.9686401 1.91616 188.55901
4.1020699 1.91717 188.659
4.2351398 1.91796 188.73599
4.3677001 1.91847 188.786
4.49931 1.91855 188.79401
4.6324 1.91924 188.862
4.7664199 1.92026 188.963
4.8975 1.9200799 188.94501
5.0279899 1.91968 188.90601
5.1585002 1.91931 188.869
5.28757 1.91844 188.783
5.4159498 1.9173599 188.677
5.5447402 1.9164799 188.59
5.6719999 1.91512 188.45599
5.8008399 1.91434 188.38
5.9298601 1.91366 188.312
6.06006 1.91338 188.285
6.1905999 1.91321 188.26801
6.31991 1.91268 188.216
6.4505501 1.91256 188.205
6.5840902 1.9133 188.27699
6.7152801 1.91333 188.28
6.9811201 1.91434 188.38
7.1139102 1.91479 188.424
7.2480798 1.91558 188.502
7.3848801 1.91703 188.644
7.5205598 1.9181401 188.754
7.6542902 1.91872 188.811
7.78725 1.9191 188.84801
7.9203701 1.9195 188.88699
8.0496998 1.91898 188.836
8.3125496 1.91897 188.83501
8.4444199 1.91906 188.84399
8.5748796 1.9188401 188.82201
8.7071104 1.91901 188.839
8.974 1.91986 188.923
9.1066399 1.92009 188.946
9.2379103 1.92004 188.94
9.3701096 1.9201699 188.95399
9.5035801 1.92056 188.992
9.6400995 1.92155 189.089
9.7777004 1.92272 189.205
10.0541 1.92522 189.45
10.1919 1.92633 189.55901
10.3298 1.92744 189.66901
10.598 1.92818 189.742
10.7314 1.92843 189.76601
10.8645 1.9285901 189.782
10.9995 1.9291101 189.83299
11.1331 1.92935 189.85699
11.2699 1.93014 189.935
11.4052 1.93066 189.98599
11.5399 1.93108 190.02699
11.6773 1.9319299 190.11
11.8141 1.93265 190.18201
11.954 1.9338599 190.30099
12.092 1.93475 190.388
12.2331 1.93611 190.522
12.3737 1.93736 190.645
12.5191 1.93931 190.83701
12.6605 1.94063 190.967
12.7959 1.941 191.00301
12.9355 1.942 191.10201
13.0726 1.94259 191.16
13.2088 1.94305 191.205
13.346 1.94365 191.26401
13.4842 1.94437 191.33501
13.6218 1.9450099 191.39799
13.7607 1.94581 191.476
13.9007 1.94675 191.569
14.0439 1.94811 191.703
14.1933 1.9503 191.91901
14.3401 1.9521 192.095
14.5045 1.9562401 192.50301
14.8345 1.96445 193.31
14.9744 1.96515 193.38
15.3929 1.96701 193.563
15.5339 1.9678 193.64101
15.984 1.99028 195.853
16.131001 1.9916 195.98199
16.278999 1.99301 196.121
16.4245 1.99411 196.229
16.572701 1.9955 196.367
16.7202 1.9967901 196.493
16.870001 1.99833 196.645
17.0172 1.99953 196.763
17.1744 2.0019 196.996
-8.0077696 2.1254699 195.74001
-7.87608 2.1267099 195.853
-7.7435598 2.1277599 195.95
-7.6098599 2.12852 196.02
-7.4742799 2.1287701 196.043
-7.3380499 2.12884 196.05
-7.20435 2.1296599 196.125
-7.0695901 2.1301999 196.175
-6.9330702 2.1302099 196.17599
-6.7976098 2.1305599 196.20799
-6.66258 2.1310599 196.254
-6.5280099 2.1317201 196.31599
-6.3927698 2.1322 196.35899
-6.25668 2.13241 196.37801
-6.1199698 2.13241 196.379
-5.9838901 2.1326301 196.399
-5.8471398 2.1326201 196.39799
-5.7094598 2.1322601 196.36501
-5.5707598 2.1315 196.295
-5.4293499 2.1296301 196.123
-3.0366099 2.0804999 191.59801
-2.89938 2.07775 191.345
-2.62693 2.0729799 190.905
-2.49189 2.0711999 190.742
-2.35689 2.0692501 190.562
-2.22246 2.0676 190.411
-2.0885999 2.0663099 190.29201
-1.9549299 2.0650499 190.17599
-1.82169 2.06408 190.086
-1.55532 2.06182 189.87801
-1.42298 2.06159 189.85699
-1.29057 2.0611999 189.821
-1.15848 2.0613 189.83
-0.89358902 2.0599501 189.705
-0.761509 2.0599 189.701
-0.62937498 2.05966 189.679
-0.49723399 2.0592699 189.64301
-0.36512899 2.05878 189.59801
-0.101051 2.0567601 189.412
0.030796699 2.05598 189.34
0.162514 2.05481 189.23199
0.29417601 2.0543101 189.186
0.425798 2.05392 189.151
0.55739599 2.0536301 189.12399
0.68919998 2.05406 189.16299
0.82096201 2.05425 189.181
0.95295501 2.0548899 189.239
1.08481 2.05511 189.25999
1.21646 2.05493 189.243
1.34802 2.0546601 189.218
1.47969 2.05458 189.211
1.61081 2.0538199 189.14101
1.74196 2.0532 189.084
1.87265 2.05217 188.989
2.00407 2.0520201 188.97501
2.13486 2.05129 188.908
2.2655399 2.05053 188.839
2.39588 2.0495801 188.75101
2.65622 2.0476799 188.576
2.7862401 2.0467501 188.491
2.9172001 2.0465801 188.474
3.0483301 2.04653 188.47
3.1791601 2.0462899 188.44701
3.4426 2.0469201 188.506
3.5737 2.04684 188.49899
3.70625 2.04758 188.56599
3.8389499 2.0483401 188.636
3.97159 2.0490201 188.69901
4.1048102 2.0499499 188.785
4.2374201 2.0505199 188.83701
4.3698201 2.0509701 188.87801
4.50143 2.0510199 188.883
4.6346598 2.05179 188.95399
4.7677398 2.0524499 189.015
4.8986402 2.05217 188.989
5.0290699 2.0517001 188.946
5.1595001 2.05126 188.90601
5.2880402 2.0501101 188.8
5.4168 2.0490999 188.707
5.5457101 2.0481901 188.623
5.67272 2.0466399 188.48
5.8015599 2.04581 188.403
5.9303598 2.0449901 188.32899
6.06107 2.0448599 188.31599
6.1922498 2.0448899 188.319
6.3220401 2.0444601 188.28
6.4529099 2.0444 188.274
6.5859299 2.0450101 188.33
6.7178798 2.04526 188.353
6.85008 2.0455799 188.383
6.9840899 2.0464301 188.46001
7.11731 2.0470099 188.51401
7.2522402 2.0480499 188.61
7.3882399 2.04935 188.73
7.5249 2.0507901 188.862
7.65832 2.0513101 188.91
7.7902799 2.05143 188.92101
7.9226098 2.05164 188.94099
8.0510998 2.0508699 188.869
8.1814299 2.05058 188.843
8.31493 2.05108 188.88901
8.4464598 2.05109 188.89
8.57759 2.0510001 188.882
8.7094898 2.0511 188.89101
8.8424997 2.05145 188.923
8.9762297 2.05195 188.96899
9.1086397 2.05215 188.987
9.2410603 2.05234 189.005
9.37391 2.0526199 189.03101
9.5081301 2.05319 189.08299
9.6461096 2.0545399 189.207
9.7841501 2.0558701 189.33
9.9209299 2.0569 189.425
10.06 2.0583799 189.561
10.1976 2.05952 189.666
10.3352 2.0606201 189.76801
10.4688 2.06091 189.79401
10.6025 2.0612099 189.82201
10.7355 2.0613899 189.839
10.8691 2.0616601 189.864
11.0037 2.0621099 189.905
11.1376 2.0624299 189.93401
11.2745 2.0632801 190.013
11.4099 2.0638499 190.064
11.5437 2.06411 190.089
11.682 2.06516 190.186
11.8193 2.06603 190.26601
11.9584 2.0671799 190.371
12.096 2.0680499 190.452
12.2372 2.0695 190.586
12.3849 2.07201 190.81599
12.5336 2.07464 191.05901
12.6712 2.0753801 191.127
12.8077 2.0759499 191.17999
12.9437 2.0764201 191.222
13.0785 2.07669 191.24699
13.2157 2.0773201 191.306
13.3536 2.0780599 191.37399
13.4906 2.07864 191.427
13.6265 2.0790401 191.464
13.7646 2.0797601 191.53
14.0506 2.0826299 191.795
14.1991 2.08483 191.99699
14.3488 2.0871699 192.213
14.5185 2.09233 192.688
14.6964 2.0985799 193.263
14.8435 2.1003599 193.42799
14.9815 2.1008401 193.47099
15.1193 2.10127 193.511
15.2574 2.1017301 193.55299
15.399 2.1026599 193.63901
15.5698 2.1075399 194.088
15.8218 2.12322 195.533
15.996 2.1283 196
16.1422 2.12959 196.119
16.289801 2.1310301 196.252
16.433399 2.1319399 196.33501
16.584499 2.1338 196.506
16.7309 2.13502 196.619
16.878 2.1363001 196.737
17.030001 2.13819 196.911
-7.8800402 2.2642601 195.952
-7.7470698 2.26527 196.039
-7.6126099 2.2658701 196.091
-7.4773502 2.2662499 196.12399
-7.3424301 2.2667401 196.16701
-7.2076201 2.2672999 196.215
-7.0729198 2.2679 196.267
-6.9381299 2.2685101 196.319
-6.6661901 2.26898 196.36
-6.5297499 2.2690699 196.368
-6.3949699 2.2697501 196.427
-6.2588601 2.26998 196.44701
-6.1231999 2.27039 196.48199
-5.85007 2.27055 196.49699
-5.7116699 2.2699201 196.44099
-5.5727 2.2690101 196.36301
-5.4320202 2.26735 196.21899
-5.29213 2.26594 196.09801
-2.7653601 2.2103601 191.28799
-2.6288099 2.20753 191.04201
-2.3582599 2.2032599 190.673
-2.0899501 2.20028 190.41499
-1.95637 2.1991301 190.315
-1.82256 2.19753 190.177
-1.6893899 2.1965201 190.09
-1.55685 2.1962299 190.064
-1.42413 2.19561 190.011
-1.29161 2.19519 189.974
-1.1593 2.19508 189.965
-1.02653 2.19396 189.868
-0.89415199 2.19346 189.825
-0.76190001 2.1931601 189.799
-0.62965798 2.19276 189.765
-0.49741799 2.1921699 189.713
-0.36525699 2.1916101 189.66499
-0.23312099 2.19067 189.58299
-0.101089 2.1895001 189.48199
0.030804999 2.1884501 189.39101
0.16258299 2.1875401 189.313
0.42599499 2.1866801 189.23801
0.55767101 2.18644 189.217
0.689578 2.1870201 189.267
0.82135701 2.1870699 189.272
0.953408 2.1877401 189.32899
1.08527 2.18786 189.34
1.2168601 2.1874599 189.306
1.3484499 2.18715 189.27901
1.4801199 2.187 189.265
1.61121 2.18609 189.187
1.7424099 2.1854601 189.133
1.87307 2.1842899 189.03101
2.0044999 2.1841199 189.01601
2.1353099 2.18332 188.94701
2.2658899 2.18241 188.868
2.3963499 2.1814699 188.787
2.5264499 2.18033 188.689
2.6568999 2.17958 188.62399
2.78703 2.1786599 188.54401
2.9184599 2.1788001 188.556
3.0495901 2.1787 188.547
3.1810901 2.17887 188.562
3.3123 2.1788299 188.558
3.4447801 2.1796 188.625
3.5759699 2.1795199 188.618
3.7088399 2.1804399 188.698
3.8417799 2.18134 188.776
3.9745901 2.1821001 188.842
4.1075101 2.1828799 188.909
4.2398801 2.18332 188.94701
4.3718901 2.1835599 188.968
4.6367202 2.18437 189.03799
4.7691398 2.1847501 189.071
4.8996601 2.1842599 189.028
5.0300598 2.1837399 188.983
5.1603498 2.1831999 188.937
5.28861 2.18185 188.82001
5.4170899 2.18066 188.717
5.5465899 2.17992 188.653
5.6739802 2.1784101 188.522
5.8027601 2.17749 188.442
5.9316902 2.1766601 188.371
6.06284 2.1766601 188.371
6.19385 2.17662 188.367
6.3235102 2.17611 188.323
6.4556298 2.17646 188.353
6.5879102 2.1768401 188.386
6.7204599 2.17729 188.42599
6.8527699 2.17765 188.457
6.9865799 2.1784699 188.528
7.1206298 2.1793301 188.60201
7.2556601 2.18045 188.69901
7.39112 2.1816599 188.804
7.52809 2.18327 188.94299
7.66149 2.1838 188.989
7.7927198 2.1837001 188.98
7.9235501 2.1835001 188.963
8.0522804 2.18274 188.897
8.18295 2.1825199 188.87801
8.3171301 2.1832199 188.939
8.4489098 2.18329 188.94501
8.5797796 2.18312 188.92999
8.7121296 2.1833301 188.948
8.8448801 2.18363 188.974
8.9780502 2.18402 189.008
9.1108503 2.18431 189.033
9.2435198 2.1845701 189.05499
9.3785896 2.18537 189.125
9.5131903 2.1860499 189.183
9.7882204 2.1886499 189.408
9.9251499 2.18977 189.505
10.0666 2.1918499 189.685
10.2046 2.19312 189.795
10.3406 2.1939499 189.867
10.4733 2.1940501 189.87601
10.6064 2.1942501 189.89301
10.7394 2.1944101 189.907
10.8737 2.1948299 189.94299
11.0077 2.19519 189.974
11.1412 2.1954401 189.996
11.4148 2.19718 190.146
11.5493 2.1975901 190.18201
11.6871 2.1986001 190.27
11.8253 2.1996701 190.362
11.9627 2.2005601 190.439
12.1016 2.20171 190.53799
12.2432 2.20333 190.679
12.3992 2.2074599 191.036
12.5444 2.20962 191.22301
12.816 2.2105401 191.30299
12.953 2.21119 191.35899
13.0867 2.2112801 191.367
13.2231 2.2118199 191.41299
13.3591 2.21226 191.452
13.4947 2.21264 191.48399
13.6315 2.2132199 191.534
13.7705 2.2141199 191.61301
13.9119 2.21539 191.72301
14.0561 2.2170999 191.87
14.2081 2.21997 192.119
14.3584 2.2225299 192.34
14.5424 2.2302101 193.005
14.7113 2.2354701 193.46001
14.8499 2.2360599 193.511
14.9879 2.2365501 193.55299
15.125 2.2369001 193.584
15.2653 2.23771 193.65401
15.4052 2.23844 193.717
15.5958 2.24648 194.41299
15.8519 2.26373 195.90601
16.006399 2.2662899 196.12801
16.151699 2.2675099 196.233
16.2983 2.2689099 196.354
16.446699 2.27052 196.494
16.5956 2.2721801 196.638
16.7383 2.27297 196.70599
16.889601 2.2749 196.873
-7.8834 2.4017701 196.036
-7.7519698 2.4033301 196.16299
-7.6173301 2.40394 196.213
-7.4819102 2.40432 196.243
-7.3473101 2.4049799 196.297
-7.2118602 2.40538 196.33
-7.07654 2.4058399 196.368
-6.9420099 2.40659 196.429
-6.8050499 2.4065199 196.423
-6.6696701 2.4070001 196.463
-6.5343599 2.4075401 196.507
-6.3986301 2.4079399 196.539
-6.2636499 2.4086499 196.597
-6.1268101 2.4086599 196.59801
-5.9902501 2.4087801 196.608
-5.8536701 2.4089 196.617
-5.7153101 2.4082799 196.56599
-5.5752101 2.4068699 196.452
-5.4338298 2.40482 196.285
-5.2936602 2.4032199 196.15401
-2.4950299 2.3398499 190.98199
-2.22525 2.3357899 190.64999
-1.9574701 2.3329999 190.423
-1.82373 2.3315001 190.3
-1.69072 2.33076 190.24001
-1.55759 2.32972 190.155
-1.4248 2.3290501 190.10001
-1.29204 2.32829 190.03799
-1.15994 2.3286901 190.07001
-1.02713 2.3275499 189.978
-0.89460498 2.32686 189.92101
-0.76228398 2.32653 189.894
-0.62986702 2.3257101 189.827
-0.49761301 2.3252201 189.787
-0.36536199 2.3243899 189.72
-0.2332 2.3235099 189.64799
0.030817199 2.32129 189.466
0.162636 2.3201699 189.375
0.29443401 2.31988 189.35201
0.426218 2.3197 189.33701
0.68993503 2.32005 189.36501
0.82183403 2.32025 189.382
1.21726 2.32007 189.367
1.34874 2.3194699 189.31799
1.48035 2.31919 189.295
1.61142 2.3181801 189.21201
1.74268 2.31756 189.162
1.87359 2.3166101 189.084
2.0046501 2.3159399 189.03
2.1359 2.3155701 188.99899
2.2663901 2.3144701 188.91
2.39678 2.31339 188.821
2.5272601 2.3125 188.74899
2.6578901 2.31183 188.69501
2.7882299 2.3109901 188.62601
2.9196401 2.31106 188.632
3.0513501 2.3113599 188.65601
3.1821699 2.3109901 188.62601
3.3150201 2.3120601 188.713
3.4468999 2.3124001 188.741
3.5790999 2.3129201 188.783
3.7111599 2.3133199 188.81599
3.9779301 2.3155799 189.00101
4.10956 2.3156099 189.00301
4.2416601 2.3159001 189.02699
4.3740001 2.3162999 189.05901
4.50599 2.3164899 189.075
4.63872 2.31704 189.12
4.7704201 2.31706 189.12199
4.90026 2.3162 189.05099
5.03021 2.3154399 188.989
5.16013 2.3146999 188.929
5.2891102 2.31359 188.838
5.4176602 2.31235 188.737
5.5464301 2.31126 188.64799
5.67484 2.31007 188.55099
5.8045802 2.3094599 188.50101
5.9336801 2.30863 188.43401
6.0645399 2.3085101 188.424
6.1950998 2.30829 188.405
6.3253298 2.30795 188.37801
6.4585199 2.3086801 188.438
6.5905199 2.30897 188.461
6.7232299 2.30949 188.50301
6.8554802 2.30983 188.532
6.9892602 2.3106699 188.60001
7.1233201 2.3115699 188.673
7.2594399 2.3130901 188.797
7.3960299 2.3146999 188.929
7.7944498 2.31585 189.02299
7.9257202 2.3157499 189.015
8.0542402 2.3148799 188.94299
8.1863604 2.3150401 188.957
8.31989 2.3155899 189.002
8.4506798 2.3153801 188.98399
8.5821695 2.3153601 188.983
8.7143297 2.31552 188.996
8.8468599 2.3157699 189.01601
8.9811096 2.3164599 189.07201
9.1139698 2.3167701 189.09801
9.2469501 2.3171101 189.125
9.3811302 2.3177299 189.17599
9.65588 2.3204601 189.399
9.7936802 2.3218701 189.51401
9.9298401 2.32286 189.595
10.0722 2.3252499 189.78999
10.2113 2.3268499 189.92101
10.3446 2.3271 189.94099
10.4795 2.3276801 189.98801
10.6118 2.3276999 189.99001
10.7441 2.3277099 189.991
10.8779 2.3280201 190.01601
11.0118 2.3283701 190.045
11.1458 2.3287301 190.07401
11.2838 2.32989 190.16901
11.4189 2.3304501 190.214
11.5542 2.3310399 190.263
11.692 2.3320999 190.349
11.829 2.3329799 190.42101
11.9677 2.3341899 190.519
12.1061 2.3353 190.61
12.2527 2.33796 190.827
12.4125 2.34305 191.242
12.554 2.34461 191.37
12.6893 2.34498 191.39999
12.8245 2.34535 191.42999
12.9607 2.34588 191.474
13.0948 2.34603 191.48599
13.2306 2.3464701 191.521
13.3651 2.3466699 191.53799
13.4996 2.3468599 191.554
13.6356 2.3473201 191.592
13.7746 2.34828 191.66901
13.9159 2.3496101 191.778
14.0624 2.3517799 191.95599
14.2137 2.3547101 192.194
14.3778 2.35969 192.601
14.5611 2.3677001 193.255
14.716 2.37097 193.522
14.8567 2.3719201 193.599
14.9941 2.37235 193.634
15.1309 2.3726599 193.66
15.2723 2.3736801 193.743
15.4105 2.3742001 193.785
15.8699 2.4029 196.12801
16.0144 2.4040999 196.22501
16.160101 2.4054501 196.336
16.306499 2.4068799 196.453
16.454201 2.4084899 196.584
16.603001 2.4102199 196.72501
16.7526 2.41204 196.87399
16.906 2.4143701 197.064
-7.8854899 2.53899 196.088
-7.7537398 2.54055 196.20799
-7.6205602 2.5416901 196.29601
-7.48564 2.5422699 196.341
-7.3512201 2.5430601 196.40199
-7.21661 2.5438001 196.459
-7.0812998 2.5443201 196.5
-6.9461398 2.54492 196.54601
-6.8094602 2.54498 196.55
-6.6735601 2.54533 196.577
-6.5389299 2.54619 196.644
-6.4029999 2.5465801 196.674
-6.26689 2.5469 196.69901
-6.1313801 2.5474999 196.745
-5.99474 2.5476401 196.755
-5.8580899 2.54777 196.76601
-5.7176299 2.5462201 196.646
-5.5774899 2.54474 196.532
-5.4365602 2.54282 196.384
-5.2962399 2.54109 196.25
-5.1567202 2.53966 196.13901
-2.36129 2.47205 190.918
-2.22651 2.46998 190.758
-2.0926001 2.4686699 190.657
-1.82499 2.46574 190.431
-1.69172 2.46473 190.35201
-1.42555 2.46276 190.2
-1.2927999 2.46209 190.149
-1.16035 2.46193 190.136
-0.89499003 2.4602001 190.00301
-0.76248801 2.45945 189.94501
-0.629996 2.4584301 189.866
-0.49770799 2.45788 189.823
-0.365439 2.4570501 189.759
-0.233244 2.4560599 189.683
-0.101147 2.45489 189.593
0.0308288 2.45418 189.53799
0.162698 2.4530001 189.44701
0.29455301 2.45277 189.429
0.42640901 2.4526801 189.422
0.55821502 2.45241 189.401
0.690198 2.4528799 189.437
0.82221001 2.45328 189.46899
0.954099 2.4532599 189.467
1.08609 2.45347 189.483
1.34919 2.4521599 189.382
1.4807 2.4516201 189.34
1.6117899 2.4505301 189.256
1.7430201 2.44979 189.19901
1.87392 2.44874 189.118
2.0051501 2.44821 189.077
2.1364501 2.44784 189.048
2.26718 2.4468999 188.97501
2.3975899 2.44573 188.88499
2.5283699 2.44504 188.832
2.6593299 2.4445901 188.797
2.78951 2.44348 188.71201
2.9212 2.4437599 188.733
3.0529599 2.4440501 188.755
3.18471 2.44432 188.77699
3.31739 2.44525 188.84801
3.4493899 2.4456301 188.87801
3.58128 2.44591 188.899
3.71368 2.44649 188.944
3.84623 2.44714 188.994
3.9797499 2.44835 189.08701
4.1113601 2.4483299 189.086
4.2438102 2.4488001 189.12199
4.3758101 2.4489901 189.13699
4.5075898 2.4490499 189.142
4.6399398 2.44941 189.16901
4.7713299 2.44926 189.158
4.9008598 2.44818 189.07401
5.03053 2.4472301 189.00101
5.1602898 2.4463699 188.935
5.2891402 2.4451399 188.839
5.41853 2.4442 188.767
5.5472798 2.4430301 188.677
5.67593 2.44187 188.58701
5.8053999 2.4410999 188.528
5.9348998 2.4403901 188.47301
6.0657601 2.4402499 188.46201
6.1968398 2.4402001 188.45799
6.3271098 2.4398501 188.431
6.4615102 2.4410601 188.52499
6.5938001 2.4414501 188.55499
6.7262402 2.44188 188.588
6.8591299 2.44245 188.632
6.99261 2.4432099 188.69
7.1282101 2.4446599 188.80299
7.2638798 2.44609 188.91299
7.4000602 2.4476299 189.032
7.5351901 2.4487801 189.121
7.6663098 2.4486101 189.108
8.0562897 2.4470999 188.991
8.1883001 2.4472301 189.00101
8.3223495 2.4479599 189.058
8.4538498 2.4479301 189.05499
8.5852003 2.44785 189.049
8.7170897 2.4479301 189.05499
8.8501501 2.4483399 189.086
8.9836397 2.4488399 189.12601
9.1173496 2.4493899 189.168
9.2502699 2.4497199 189.19299
9.5229397 2.4521 189.377
9.6601496 2.45347 189.483
9.7986097 2.4551101 189.60899
9.9401302 2.4574599 189.791
10.0801 2.4593799 189.939
10.4842 2.4611101 190.073
10.616 2.461 190.065
10.8823 2.46137 190.093
11.0163 2.46176 190.123
11.1522 2.4625299 190.183
11.2882 2.46331 190.243
11.4228 2.4637799 190.27901
11.5598 2.4647501 190.354
11.6972 2.46578 190.433
11.9712 2.4676099 190.575
12.1129 2.46945 190.717
12.2785 2.4760599 191.228
12.4236 2.4784501 191.412
12.5617 2.4794199 191.487
12.6969 2.47979 191.515
13.5054 2.48136 191.63699
13.6399 2.48155 191.65199
13.7783 2.48245 191.72099
13.9218 2.4842501 191.86
14.0691 2.48668 192.048
14.226 2.49073 192.36
14.399 2.49752 192.88499
14.5778 2.5051701 193.476
14.7236 2.5070601 193.62199
14.8631 2.5078599 193.68401
14.9981 2.50788 193.685
15.1348 2.5081999 193.71001
15.2796 2.50982 193.83501
15.4337 2.5129499 194.077
15.6915 2.5327499 195.606
16.023199 2.54217 196.33299
