# .PCD v0.7 - Point Cloud Data file format
VERSION 0.7
FIELDS x y z
SIZE 4 4 4
TYPE F F F
COUNT 1 1 1
WIDTH 1775
HEIGHT 1
VIEWPOINT 0 0 0 1 0 0 0
POINTS 1775
DATA ascii
10.7632 17.5772 190.328
10.899 17.5825 190.38499
11.0343 17.586901 190.433
11.1685 17.5895 190.461
11.3032 17.5928 190.49699
11.4397 17.598801 190.562
11.5758 17.604 190.618
11.7125 17.610001 190.683
11.8474 17.613199 190.717
11.9826 17.6168 190.756
12.1171 17.619301 190.784
12.2536 17.6245 190.84
12.3903 17.6301 190.89999
12.6638 17.640699 191.01601
12.8009 17.6465 191.078
12.9373 17.6511 191.12801
13.0766 17.6595 191.21899
13.3544 17.674801 191.38499
13.4916 17.68 191.44099
13.6317 17.688801 191.537
13.7714 17.697001 191.625
13.9145 17.709299 191.759
14.0537 17.7166 191.83701
-5.6793699 17.750299 190.763
-5.5454402 17.7467 190.724
-5.41046 17.739401 190.647
-5.2760701 17.733801 190.586
-5.1413598 17.726801 190.511
-5.0072198 17.721399 190.453
-4.8734899 17.7173 190.408
-4.74016 17.7143 190.377
-4.60707 17.7122 190.354
-4.4738998 17.7096 190.326
-4.3399901 17.7038 190.26401
-4.2065101 17.699499 190.217
-4.0731001 17.6952 190.17101
-3.9398999 17.691601 190.132
-3.80723 17.690201 190.117
-3.6741099 17.686399 190.077
-3.5417099 17.686001 190.073
-3.4087701 17.6828 190.03799
-3.27635 17.682199 190.03101
-3.14361 17.6796 190.004
-3.0114999 17.680599 190.01401
-2.8791399 17.680099 190.009
-2.7465601 17.678101 189.987
-2.6140399 17.676399 189.96899
-2.4821701 17.679001 189.998
-2.35006 17.680201 190.00999
-2.21767 17.6793 190.00101
-2.0855999 17.681 190.019
-1.9532599 17.6805 190.013
-1.82076 17.678301 189.99001
-1.6886801 17.680201 190.00999
-1.55652 17.681601 190.02499
-1.42415 17.680401 190.013
-1.29214 17.684099 190.052
-1.1599 17.685101 190.063
-0.89520901 17.6838 190.049
-0.76290601 17.6838 190.049
-0.63065302 17.6852 190.064
-0.49841699 17.688 190.09399
-0.366032 17.685499 190.067
-0.233732 17.686701 190.08
-0.101409 17.687 190.084
0.0309154 17.685801 190.07001
0.16324601 17.687201 190.08501
0.29558501 17.687799 190.092
0.427838 17.6845 190.05701
0.56020498 17.686399 190.077
0.69260699 17.6884 190.099
0.82493103 17.688101 190.095
1.22202 17.689301 190.108
1.35419 17.687 190.08299
1.4865 17.686899 190.082
1.61882 17.686899 190.082
1.7508 17.6833 190.04401
1.88297 17.6821 190.03
2.0153301 17.6828 190.03799
2.1477599 17.683901 190.049
2.28 17.6833 190.04401
2.4122801 17.683201 190.043
2.5441799 17.680401 190.013
2.6760399 17.6777 189.983
2.8083701 17.6782 189.98801
2.9405301 17.677601 189.98199
3.07287 17.677999 189.987
3.20523 17.6786 189.993
3.33709 17.676399 189.96899
3.46947 17.677099 189.97701
3.6012199 17.6747 189.951
3.73279 17.671499 189.91701
3.8654301 17.6735 189.938
3.99826 17.6761 189.967
4.1300902 17.6744 189.94701
4.2628102 17.676399 189.96899
4.39503 17.6763 189.968
4.5274601 17.677 189.97501
4.6595998 17.6766 189.97099
4.79251 17.679001 189.99699
4.9236798 17.6751 189.955
5.05513 17.6723 189.925
5.1884398 17.676001 189.965
5.32026 17.674601 189.95
5.4517698 17.6723 189.925
5.58391 17.672001 189.922
5.7161298 17.672001 189.922
5.8475699 17.669701 189.897
5.9793801 17.6686 189.88499
6.11237 17.6709 189.91
6.24264 17.6654 189.851
6.3747001 17.6651 189.84801
6.5070701 17.665701 189.854
6.6388302 17.6646 189.842
6.7704902 17.6633 189.828
6.9018602 17.661301 189.80701
7.0342498 17.6619 189.814
7.16675 17.6628 189.823
7.2985802 17.6621 189.815
7.4302702 17.660999 189.804
7.5620599 17.6602 189.795
7.6949601 17.662001 189.814
7.8271399 17.6621 189.815
7.9597902 17.6632 189.827
8.0925198 17.664499 189.841
8.3559198 17.6625 189.82001
8.4890099 17.664499 189.841
8.62183 17.6658 189.856
8.7548504 17.667601 189.87399
9.0204296 17.67 189.89999
9.1527796 17.6702 189.903
9.2862997 17.6728 189.92999
9.5541801 17.6791 189.99899
9.6887197 17.6833 190.043
9.82125 17.683701 190.048
9.9534597 17.6835 190.04601
10.0878 17.687099 190.084
10.2225 17.691299 190.129
10.3572 17.695299 190.172
10.4913 17.698099 190.203
10.6256 17.7012 190.23599
10.7589 17.7027 190.252
10.8945 17.7078 190.306
11.0304 17.713301 190.366
11.1644 17.715599 190.39101
11.2993 17.719299 190.42999
11.4361 17.726 190.502
11.5707 17.728901 190.534
11.7082 17.7362 190.612
11.8434 17.74 190.653
11.9788 17.743999 190.69501
12.1134 17.7467 190.72501
12.2492 17.751101 190.772
12.386 17.7568 190.834
12.5215 17.760599 190.87399
12.6585 17.7663 190.936
12.7945 17.770599 190.98199
12.9318 17.7766 191.04601
13.0703 17.7841 191.127
13.2098 17.792801 191.22
13.3476 17.799101 191.28799
13.4842 17.8036 191.336
13.623 17.8109 191.41499
13.7637 17.820499 191.51801
13.9061 17.832199 191.64301
14.0443 17.838301 191.709
14.1862 17.848801 191.82201
14.332 17.8641 191.98599
-5.9461002 17.886499 190.799
-5.8112202 17.880199 190.73199
-5.6775098 17.8773 190.701
-5.5438399 17.8743 190.66901
-5.4092999 17.868401 190.605
-5.27492 17.8626 190.54401
-5.14048 17.8564 190.478
-5.00631 17.8508 190.418
-4.87254 17.846399 190.371
-4.7388 17.841801 190.32201
-4.60601 17.8407 190.31
-4.4728198 17.8379 190.28
-4.3389101 17.8319 190.217
-4.2055001 17.8277 190.172
-4.0721698 17.823601 190.12801
-3.9386699 17.818399 190.073
-3.806 17.816799 190.05499
-3.6730199 17.813499 190.021
-3.5406401 17.813 190.015
-3.4077599 17.8099 189.98199
-3.2755101 17.8099 189.98199
-3.1428599 17.807699 189.959
-3.01057 17.8074 189.955
-2.8784399 17.8081 189.96201
-2.74582 17.8057 189.937
-2.6134501 17.804701 189.92599
-2.4816101 17.807301 189.95399
-2.34957 17.8088 189.97099
-2.2172799 17.8085 189.967
-2.0852599 17.8104 189.987
-1.95292 17.8097 189.98
-1.8205301 17.808399 189.966
-1.68839 17.8095 189.97701
-1.55628 17.8111 189.995
-1.29189 17.813 190.015
-1.02729 17.8123 190.008
-0.89498401 17.811701 190.00101
-0.76267898 17.8109 189.993
-0.63045001 17.811899 190.00301
-0.49826601 17.815001 190.036
-0.36593801 17.813299 190.019
-0.233666 17.8141 190.02699
-0.101379 17.8141 190.026
0.030906901 17.813299 190.01801
0.163192 17.8137 190.022
0.29550099 17.815201 190.03799
0.42774099 17.812901 190.01401
0.560058 17.8141 190.02699
0.69245201 17.8169 190.056
0.82474202 17.8165 190.052
0.95696002 17.814899 190.035
1.0894001 17.817301 190.061
1.22173 17.8176 190.064
1.35376 17.813801 190.02299
1.4860801 17.814199 190.028
1.61852 17.815901 190.04601
1.7504801 17.812401 190.009
1.88264 17.811399 189.998
2.0150199 17.812401 190.008
2.14727 17.812099 190.006
2.2795801 17.812401 190.009
2.41188 17.812599 190.011
2.5436399 17.809 189.972
2.6753099 17.805201 189.931
2.8076601 17.805901 189.94
2.9398799 17.805901 189.939
3.0720699 17.8057 189.937
3.20437 17.806101 189.942
3.33623 17.804199 189.92101
3.46843 17.8041 189.92
3.60024 17.802099 189.89799
3.8645401 17.801701 189.894
3.99719 17.803699 189.916
4.1290202 17.802099 189.89799
4.2614002 17.802799 189.90601
4.3938599 17.803801 189.91701
4.5260601 17.803801 189.91701
4.6581898 17.803499 189.914
4.7911901 17.8064 189.94501
4.9225602 17.803301 189.912
5.0539298 17.8004 189.88
5.1870098 17.8034 189.91299
5.3189702 17.802601 189.90401
5.45017 17.799299 189.869
5.5824699 17.7997 189.87399
5.7144899 17.7992 189.868
5.8455901 17.7959 189.83299
5.9775 17.7952 189.825
6.1103702 17.7973 189.84801
6.2406802 17.792101 189.791
6.37257 17.791401 189.785
6.5051098 17.792601 189.797
6.63659 17.7908 189.778
6.7681899 17.789499 189.76401
6.89959 17.787701 189.745
7.0320401 17.788601 189.754
7.1644802 17.7894 189.763
7.2962198 17.7885 189.754
7.42801 17.7878 189.746
7.8252001 17.7899 189.76801
7.95787 17.7911 189.78101
8.0906401 17.792601 189.797
8.2221003 17.7911 189.78101
8.35425 17.791201 189.782
8.4870195 17.792601 189.797
8.6197996 17.7939 189.811
8.7531404 17.7964 189.83701
8.8861599 17.7981 189.856
9.0180798 17.7976 189.851
9.1507502 17.798599 189.86099
9.2841301 17.8009 189.886
9.41712 17.802401 189.90199
9.5514603 17.8064 189.944
9.6863403 17.8113 189.996
9.9504995 17.8106 189.989
10.0849 17.814301 190.02901
10.2195 17.818399 190.073
10.354 17.822201 190.11301
10.4879 17.8249 190.14101
10.6227 17.828899 190.18401
10.7555 17.829599 190.192
10.8911 17.834801 190.248
11.027 17.840401 190.30701
11.1607 17.8424 190.328
11.2956 17.8461 190.368
11.4324 17.852699 190.439
11.5672 17.856199 190.476
11.7041 17.862801 190.54601
11.8391 17.8664 190.58501
11.9751 17.871401 190.638
12.1103 17.875 190.67599
12.2452 17.878201 190.71001
12.3809 17.882401 190.755
12.5168 17.886801 190.802
12.6538 17.892799 190.866
12.7901 17.897499 190.91701
12.9271 17.9032 190.978
13.0646 17.9095 191.04401
13.2035 17.9175 191.13
13.3406 17.922899 191.187
13.4775 17.927999 191.241
13.6149 17.9335 191.30099
13.7549 17.9424 191.396
13.8966 17.9534 191.513
14.0366 17.962 191.604
14.174 17.966999 191.657
14.3151 17.9767 191.761
14.4585 17.989 191.89301
-6.0797501 18.0219 190.825
-5.9449701 18.016001 190.763
-5.8097601 18.0086 190.68401
-5.6758099 18.0047 190.64301
-5.5422502 18.002001 190.61501
-5.4082699 17.9977 190.569
-5.2736702 17.9911 190.49899
-5.1394801 17.9856 190.44099
-5.0054798 17.980499 190.38699
-4.8716202 17.975599 190.33501
-4.7376199 17.9699 190.27499
-4.6048799 17.9688 190.263
-4.4717999 17.966299 190.237
-4.3379002 17.960199 190.173
-4.2044101 17.9555 190.123
-4.07091 17.9505 190.069
-3.93748 17.9454 190.01601
-3.8048301 17.9436 189.99699
-3.6719301 17.940599 189.964
-3.5395899 17.9401 189.959
-3.4070001 17.9382 189.94
-3.27478 17.938299 189.94
-3.1421101 17.935801 189.91299
-3.0099399 17.936001 189.91499
-2.8778501 17.936701 189.924
-2.7452099 17.933901 189.894
-2.61303 17.934099 189.895
-2.4811201 17.9361 189.91701
-2.3490801 17.937401 189.931
-2.2168 17.936899 189.92599
-2.08481 17.9389 189.94701
-1.95241 17.937401 189.931
-1.82023 17.937799 189.935
-1.68804 17.938101 189.939
-1.55599 17.9401 189.96001
-1.4235899 17.938101 189.939
-1.29167 17.9424 189.98399
-1.1595 17.943701 189.998
-1.02709 17.941299 189.972
-0.89480299 17.940399 189.963
-0.76248997 17.938801 189.946
-0.63028198 17.9394 189.952
-0.49811199 17.941799 189.97701
-0.36585301 17.9415 189.974
-0.23359901 17.941299 189.972
-0.101351 17.9415 189.974
0.030899599 17.941401 189.97301
0.16314299 17.940599 189.965
0.29541001 17.941999 189.98
0.42764899 17.941401 189.97301
0.55988699 17.941 189.96899
0.692276 17.9447 190.008
0.82456601 17.945 190.011
0.95677501 17.943701 189.998
1.08907 17.944099 190.002
1.22142 17.945299 190.015
1.3534 17.941401 189.97301
1.4857 17.941999 189.979
1.61818 17.9445 190.006
1.75012 17.941099 189.96899
1.88221 17.9396 189.95399
2.0146401 17.941299 189.972
2.14695 17.941799 189.97701
2.2790699 17.9408 189.967
2.41135 17.941 189.96899
2.5430801 17.937401 189.931
2.6747401 17.933599 189.89101
2.80703 17.9342 189.897
2.9391401 17.933701 189.892
3.0713899 17.934099 189.895
3.20366 17.9345 189.89999
3.3355999 17.9331 189.88499
3.46749 17.931499 189.868
3.5992501 17.929501 189.847
3.73121 17.928499 189.836
3.86359 17.929501 189.847
3.99617 17.9314 189.867
4.12815 17.930599 189.858
4.2603202 17.9305 189.858
4.3930202 17.932699 189.881
4.52496 17.9317 189.871
4.6571202 17.9317 189.87
4.79003 17.934401 189.899
4.9215102 17.931801 189.871
5.0527501 17.928499 189.836
5.1855898 17.930799 189.86099
5.3179002 17.931299 189.866
5.4485402 17.926201 189.812
5.5809202 17.927 189.821
5.71276 17.9261 189.811
5.8438401 17.9228 189.776
5.9756999 17.922001 189.76801
6.1082501 17.923401 189.782
6.2392302 17.920099 189.748
6.37111 17.9195 189.741
6.5033302 17.9198 189.745
6.6347499 17.9181 189.726
6.7664499 17.917 189.715
6.8976998 17.9149 189.69299
7.0304098 17.916599 189.71001
7.1626501 17.917 189.715
7.2940602 17.9154 189.698
7.42588 17.914801 189.692
7.5581799 17.9154 189.698
7.69101 17.9172 189.717
7.8232398 17.917601 189.72099
7.9556098 17.9182 189.728
8.0886803 17.920401 189.75101
8.2199097 17.918501 189.731
8.3523703 17.9193 189.739
8.4858503 17.9223 189.771
8.6183004 17.923 189.778
8.7510595 17.924299 189.79201
8.8842697 17.9265 189.815
9.0158005 17.925301 189.802
9.1488304 17.927099 189.821
9.2821703 17.929399 189.84599
9.4149599 17.930599 189.858
9.5495596 17.935101 189.907
9.6833801 17.938101 189.938
9.8161201 17.9391 189.948
9.9485102 17.939301 189.951
10.0818 17.941099 189.97
10.2168 17.9461 190.02299
10.4847 17.951799 190.08299
10.6201 17.9569 190.138
10.7543 17.9599 190.16901
10.8879 17.961901 190.19099
11.0232 17.966801 190.242
11.1569 17.9687 190.26199
11.2929 17.974501 190.32401
11.4289 17.9799 190.381
11.5639 17.983801 190.422
11.6992 17.988001 190.467
11.8362 17.994699 190.537
11.9718 17.9991 190.584
12.1063 18.001801 190.612
12.2416 18.0056 190.653
12.3761 18.008301 190.681
12.5122 18.013 190.731
12.6493 18.019199 190.797
12.7862 18.0249 190.858
12.9219 18.0289 190.89999
13.0575 18.0326 190.939
13.1973 18.042 191.039
13.3341 18.0473 191.09399
13.4714 18.0529 191.15401
13.608 18.0576 191.20399
13.7466 18.0648 191.28
13.8882 18.075899 191.397
14.0278 18.084101 191.48399
14.1658 18.09 191.547
14.3057 18.0984 191.63499
14.4487 18.110399 191.76199
14.5928 18.123501 191.901
14.7368 18.136299 192.037
14.8855 18.1546 192.231
-6.2134199 18.1572 190.851
-6.0781298 18.1499 190.774
-5.9429498 18.1427 190.698
-5.8080802 18.136101 190.629
-5.6743698 18.1329 190.595
-5.5403399 18.1285 190.549
-5.4067001 18.1252 190.51401
-5.2722998 18.119101 190.45
-5.1381202 18.1134 190.39
-5.0041699 18.108299 190.33701
-4.8705602 18.1042 190.29401
-4.7366199 18.0986 190.235
-4.6038699 18.097401 190.222
-4.4709101 18.0952 190.19901
-4.3370299 18.0891 190.134
-4.2035198 18.084101 190.08299
-4.0700498 18.079 190.02901
-3.9367199 18.074301 189.979
-3.8041799 18.072901 189.964
-3.67135 18.07 189.93401
-3.53862 18.0674 189.907
-3.4063399 18.066999 189.903
-3.2743001 18.0679 189.912
-3.1415701 18.064899 189.881
-3.00934 18.0646 189.87801
-2.8773401 18.0658 189.89
-2.74471 18.062901 189.86
-2.61268 18.0639 189.87
-2.4806299 18.0648 189.88
-2.34849 18.065201 189.883
-2.21632 18.0653 189.884
-2.0843301 18.066999 189.90199
-1.95208 18.066601 189.899
-1.81996 18.067301 189.90601
-1.68771 18.0669 189.901
-1.4233299 18.067101 189.90401
-1.29136 18.0704 189.938
-1.1591901 18.071199 189.94701
-1.02683 18.068899 189.923
-0.89460897 18.0688 189.922
-0.76234198 18.0676 189.909
-0.63014603 18.0679 189.911
-0.49797001 18.069 189.924
-0.36575699 18.069099 189.925
-0.233531 18.068399 189.91701
-0.101329 18.07 189.93401
0.030894499 18.0707 189.942
0.163103 18.0686 189.91901
0.295333 18.069599 189.92999
0.42755499 18.0697 189.931
0.559726 18.0681 189.914
0.69212401 18.073 189.966
0.82439798 18.0737 189.97301
0.95655298 18.071899 189.95399
1.0887001 18.0704 189.938
1.22121 18.074699 189.983
1.3533 18.072399 189.959
1.48557 18.0728 189.963
1.61787 18.0734 189.97
1.74973 18.069401 189.927
1.88173 18.067301 189.90601
2.0141201 18.068899 189.923
2.1464601 18.07 189.93401
2.27859 18.0693 189.927
2.4107299 18.068701 189.92101
2.54251 18.065599 189.888
2.6742401 18.0625 189.855
2.8064499 18.062799 189.858
2.9384401 18.061701 189.847
3.0707901 18.062799 189.858
3.20314 18.063801 189.869
3.3352499 18.0634 189.86501
3.4668 18.0602 189.83
3.59848 18.0578 189.806
3.7305601 18.0576 189.80299
3.8627801 18.057899 189.80701
3.9953699 18.059999 189.82899
4.1274199 18.059601 189.825
4.2592802 18.058399 189.812
4.3920898 18.0611 189.841
4.52391 18.059799 189.827
4.6560302 18.0597 189.825
4.7889099 18.062401 189.854
4.9205198 18.0604 189.83299
5.05163 18.0567 189.79401
5.1841002 18.057899 189.806
5.3165398 18.058901 189.817
5.4475398 18.055099 189.778
5.5795298 18.054701 189.77299
5.7112298 18.0534 189.75999
5.8422799 18.0502 189.726
5.9742498 18.0499 189.722
6.1065202 18.0504 189.728
6.2379098 18.048401 189.707
6.3701401 18.048901 189.71201
6.50178 18.047701 189.7
6.63309 18.0457 189.67799
6.7649598 18.0452 189.673
6.8958402 18.0422 189.64101
7.0289898 18.045099 189.672
7.1610498 18.045099 189.672
7.2926302 18.044001 189.66
7.42413 18.0427 189.647
7.5561099 18.042601 189.646
7.6893401 18.045401 189.675
7.8212299 18.045099 189.672
7.9535899 18.045799 189.67999
8.0867901 18.048401 189.707
8.21803 18.0466 189.688
8.3502703 18.047001 189.692
8.4834499 18.0494 189.717
8.6164703 18.0513 189.73801
8.7491703 18.052601 189.75101
8.8825903 18.0553 189.77901
9.0137196 18.053301 189.759
9.1470203 18.0557 189.784
9.2800102 18.0574 189.80099
9.4125795 18.058201 189.81
9.5466003 18.0618 189.84801
9.6806402 18.0653 189.88499
9.8139496 18.0674 189.90601
9.9458103 18.0667 189.89999
10.0793 18.069 189.924
10.2139 18.073299 189.968
10.3484 18.0772 190.009
10.4828 18.0809 190.049
10.6172 18.084499 190.086
10.7508 18.086599 190.10899
10.884 18.0881 190.12399
11.0207 18.0952 190.198
11.1543 18.097 190.218
11.2895 18.1015 190.265
11.4248 18.1061 190.313
11.5601 18.1105 190.35899
11.696 18.1157 190.414
11.8321 18.121099 190.47099
11.968 18.126101 190.524
12.1017 18.1278 190.541
12.2384 18.133801 190.605
12.3721 18.135201 190.619
12.5083 18.1402 190.672
12.645 18.146 190.73199
12.7814 18.1511 190.787
12.9166 18.154499 190.82201
13.0518 18.157801 190.85699
13.1904 18.1656 190.939
13.3282 18.1723 191.009
13.4653 18.1779 191.06799
13.6018 18.1826 191.117
13.7408 18.190399 191.2
13.8808 18.1994 191.295
14.0201 18.207399 191.37801
14.1583 18.2138 191.44501
14.2964 18.219999 191.50999
14.4385 18.2311 191.627
14.5832 18.245199 191.776
14.7266 18.257401 191.90401
14.8725 18.272499 192.063
15.1529 18.2882 192.228
-6.48241 18.2994 190.94701
-6.3467202 18.291401 190.864
-6.2117 18.285101 190.798
-6.07622 18.2771 190.714
-5.9410601 18.269699 190.63699
-5.8066702 18.2645 190.58299
-5.6729202 18.261 190.54601
-5.5386 18.255501 190.489
-5.4053602 18.2533 190.467
-5.2709098 18.246901 190.39999
-5.1370001 18.2421 190.349
-5.0030398 18.236799 190.29401
-4.8695002 18.2328 190.252
-4.7356701 18.227501 190.19701
-4.60288 18.226 190.181
-4.4699101 18.2236 190.15601
-4.3365002 18.219299 190.11099
-4.2030301 18.214399 190.06
-4.0696902 18.209801 190.01199
-3.9363101 18.2047 189.959
-3.80355 18.2022 189.933
-3.6707699 18.199499 189.90401
-3.53825 18.1978 189.88699
-3.4058199 18.196501 189.87399
-3.27371 18.196899 189.87801
-3.1411099 18.1945 189.853
-3.0088201 18.1938 189.845
-2.8768001 18.194599 189.854
-2.7444201 18.193199 189.839
-2.6120999 18.192101 189.828
-2.4802201 18.194099 189.84801
-2.34794 18.193199 189.839
-2.2158201 18.193501 189.842
-2.0838101 18.1947 189.855
-1.9517 18.195299 189.86099
-1.68748 18.196699 189.87601
-1.55546 18.198601 189.895
-1.42308 18.1961 189.87
-1.29101 18.197701 189.886
-1.15881 18.1975 189.884
-1.02662 18.1975 189.884
-0.89448398 18.198601 189.895
-0.76226801 18.198099 189.89
-0.629987 18.195601 189.864
-0.49784499 18.196699 189.875
-0.365713 18.1992 189.90199
-0.233503 18.1984 189.894
-0.101312 18.1992 189.90199
0.030889099 18.1999 189.908
0.163078 18.198 189.88901
0.295286 18.198999 189.89999
0.42748201 18.1989 189.899
0.55963898 18.197599 189.88499
0.69204998 18.2034 189.946
0.82422602 18.2022 189.933
0.95630002 18.1994 189.90401
1.08842 18.198099 189.89
1.22089 18.202101 189.93201
1.35309 18.2019 189.92999
1.4853801 18.2027 189.938
1.61757 18.202299 189.93401
1.7494299 18.1985 189.895
1.88135 18.1959 189.867
2.01373 18.197701 189.886
2.14604 18.198799 189.897
2.2781301 18.197901 189.888
2.4104199 18.1987 189.896
2.54212 18.195101 189.85899
2.6738901 18.1924 189.83099
2.8060501 18.1924 189.83099
2.93802 18.191299 189.82001
3.07055 18.1936 189.843
3.2029901 18.1952 189.86
3.3348899 18.193701 189.845
3.4662399 18.189501 189.8
3.5980301 18.1877 189.782
3.7299399 18.1868 189.772
3.8622999 18.187901 189.784
3.99458 18.188601 189.79201
4.12642 18.187401 189.778
4.2583499 18.1866 189.77
4.39112 18.189301 189.799
4.52284 18.1877 189.782
4.6547098 18.186701 189.772
4.78758 18.1896 189.802
4.9194899 18.188801 189.793
5.0504298 18.184601 189.74899
5.1830001 18.186199 189.76601
5.4464002 18.1835 189.73801
5.57864 18.184 189.743
5.7102699 18.182501 189.728
5.8412199 18.179001 189.69099
5.9733601 18.1793 189.694
6.1054301 18.1793 189.694
6.2371001 18.1782 189.683
6.3692098 18.1784 189.685
6.5005498 18.176399 189.664
6.6317701 18.1742 189.64101
6.7638302 18.174299 189.642
6.8948798 18.1717 189.61501
7.0278602 18.174299 189.64101
7.15975 18.173901 189.638
7.2911401 18.1724 189.62199
7.4225001 18.170799 189.605
7.5543699 18.1705 189.60201
7.6872001 18.172501 189.623
7.8190198 18.172001 189.618
7.95227 18.1749 189.64799
8.0847902 18.176001 189.66
8.2160397 18.174299 189.642
8.3484097 18.174999 189.64999
8.4811697 18.1766 189.666
8.6140404 18.1784 189.68401
8.7478304 18.181999 189.722
8.8812103 18.1847 189.75
9.0122004 18.1824 189.72701
9.1452503 18.184401 189.74699
9.2785501 18.186701 189.772
9.4115 18.1884 189.789
9.5450201 18.191 189.81599
9.6788197 18.194099 189.849
9.8122702 18.196501 189.87399
9.9444904 18.1966 189.87399
10.079 18.200701 189.918
10.212 18.202299 189.93401
10.3461 18.205601 189.968
10.4802 18.2087 190.00101
10.6157 18.2143 190.05901
10.749 18.216 190.077
10.8818 18.2167 190.084
11.0182 18.223499 190.155
11.1525 18.226601 190.188
11.2875 18.2309 190.23199
11.4222 18.2344 190.269
11.5569 18.238001 190.30701
11.6929 18.243401 190.36301
11.8282 18.2477 190.408
11.9639 18.2526 190.459
12.0991 18.256399 190.49899
12.2359 18.2628 190.565
12.3694 18.264 190.578
12.505 18.2682 190.62199
12.6413 18.2735 190.677
12.7768 18.277399 190.718
12.9124 18.281401 190.759
13.0481 18.2855 190.80299
13.1849 18.2911 190.86
13.3224 18.2974 190.92599
13.5957 18.3074 191.03101
13.7341 18.314699 191.10699
13.8734 18.322901 191.192
14.0121 18.3302 191.269
14.1505 18.337099 191.341
14.2896 18.344601 191.41901
14.4308 18.3547 191.52499
14.5735 18.366501 191.64799
14.7156 18.3773 191.75999
14.8589 18.3895 191.88699
14.9998 18.398399 191.981
15.1411 18.407801 192.07899
15.2846 18.4196 192.201
15.4313 18.434999 192.362
-6.6156602 18.4333 190.95599
-6.4804301 18.426701 190.88901
-6.3450699 18.4195 190.814
-6.2098799 18.4126 190.742
-6.0749202 18.406 190.674
-5.93959 18.398001 190.591
-5.8052502 18.3927 190.536
-5.6712198 18.388201 190.489
-5.5370698 18.383101 190.436
-5.40416 18.381901 190.425
-5.2697802 18.375601 190.35899
-5.1361299 18.371599 190.317
-5.0022898 18.3666 190.26601
-4.8685899 18.3619 190.217
-4.7348399 18.356701 190.16299
-4.6019602 18.354799 190.14301
-4.4690299 18.3524 190.119
-4.3360701 18.349899 190.092
-4.2027202 18.3454 190.04601
-4.0693102 18.340401 189.995
-3.93608 18.335899 189.948
-3.8031001 18.3323 189.91
-3.6702099 18.328899 189.875
-3.53792 18.3284 189.87
-3.40557 18.3274 189.86
-3.2732699 18.3267 189.85201
-3.1407199 18.324499 189.82899
-3.0084801 18.3239 189.823
-2.87641 18.3244 189.828
-2.74424 18.324301 189.827
-2.6117201 18.321699 189.8
-2.4798999 18.323999 189.82401
-2.34759 18.322701 189.81
-2.2154901 18.323 189.813
-2.0834799 18.3241 189.826
-1.95131 18.3239 189.82401
-1.81925 18.3248 189.832
-1.68718 18.325701 189.842
-1.55519 18.3276 189.86099
-1.42285 18.325399 189.839
-1.2907799 18.3267 189.85201
-1.15868 18.327801 189.86301
-1.02659 18.329201 189.879
-0.89439797 18.3291 189.877
-0.762191 18.328501 189.871
-0.62992698 18.326 189.845
-0.497769 18.3262 189.847
-0.36568099 18.329901 189.88499
-0.2335 18.3305 189.892
-0.101312 18.3314 189.901
0.0308838 18.329 189.87601
0.163045 18.326599 189.851
0.29526001 18.3297 189.883
0.427441 18.329399 189.881
0.55959898 18.328501 189.871
0.69194603 18.333 189.91701
0.82410699 18.3318 189.90601
0.95612001 18.328199 189.868
1.08824 18.327299 189.858
1.22041 18.3272 189.858
1.3528301 18.330601 189.89301
1.48525 18.3335 189.922
1.61739 18.3326 189.91299
1.74924 18.3288 189.87399
1.88099 18.3246 189.83
2.0134599 18.3276 189.86099
2.14587 18.329599 189.882
2.27811 18.33 189.886
2.4102399 18.329599 189.882
2.5418501 18.325399 189.839
2.6736 18.322599 189.81
2.80585 18.323299 189.817
2.9379001 18.3228 189.812
3.0705199 18.325701 189.842
3.20277 18.3262 189.847
3.3343799 18.323099 189.815
3.4656701 18.3186 189.769
3.5975299 18.3174 189.756
3.72945 18.3165 189.74699
3.8617899 18.317699 189.759
3.99386 18.317499 189.757
4.1255498 18.315701 189.73801
4.2574801 18.3151 189.73199
4.3903399 18.3183 189.765
4.52211 18.3169 189.75101
4.6537099 18.315001 189.731
4.7864299 18.3174 189.756
4.9184399 18.317101 189.75301
5.0492301 18.3123 189.70399
5.1819201 18.3146 189.72701
5.3136101 18.3132 189.713
5.44555 18.312799 189.70799
5.5778599 18.313601 189.717
5.7094898 18.312201 189.702
5.8404598 18.3088 189.66701
5.9725299 18.308901 189.668
6.1045599 18.3088 189.66701
6.2361202 18.307501 189.653
6.3678899 18.3067 189.645
6.4995499 18.3057 189.63499
6.63063 18.303101 189.608
6.7627001 18.303301 189.61
6.89431 18.302299 189.599
7.0267501 18.3034 189.61099
7.1585598 18.302999 189.606
7.2895398 18.3004 189.58
7.4205999 18.298201 189.55701
7.5525699 18.298201 189.55701
7.6859002 18.3015 189.591
7.81706 18.2995 189.571
7.9514899 18.305201 189.629
8.0833702 18.304899 189.62601
8.2143602 18.302601 189.603
8.3463297 18.302601 189.60201
8.4796 18.3053 189.631
8.6125002 18.307199 189.64999
8.7465401 18.311399 189.694
8.87992 18.314199 189.722
9.0107203 18.3116 189.696
9.1433601 18.312799 189.70799
9.2771502 18.3162 189.743
9.4109802 18.3195 189.778
9.5446301 18.3225 189.80901
9.6774702 18.323799 189.82201
9.8097296 18.323999 189.825
9.9421396 18.324499 189.83
10.0769 18.3293 189.879
10.2105 18.3318 189.905
10.3441 18.334299 189.931
10.4777 18.3368 189.957
10.613 18.341999 190.00999
10.7478 18.3463 190.05499
10.8802 18.3465 190.05701
11.016 18.352301 190.118
11.1498 18.3547 190.14301
11.2848 18.358999 190.187
11.4204 18.3641 190.24001
11.5541 18.3661 190.25999
11.6899 18.3713 190.314
11.8252 18.375799 190.36099
11.9615 18.3815 190.42
12.0974 18.3866 190.47301
12.2323 18.3901 190.509
12.3669 18.393101 190.53999
12.5029 18.398001 190.591
12.6386 18.4023 190.63499
12.7742 18.4065 190.679
12.908 18.4081 190.69501
13.0436 18.412001 190.73599
13.1815 18.419201 190.811
13.318 18.424299 190.86301
13.4539 18.4284 190.90601
13.591 18.434099 190.965
13.8652 18.4452 191.07899
14.0062 18.4557 191.188
14.1443 18.462299 191.257
14.283 18.4694 191.33099
14.4236 18.478901 191.429
14.5649 18.4891 191.535
14.7066 18.499599 191.64301
14.8491 18.5109 191.75999
14.9893 18.519199 191.847
15.1306 18.5287 191.94501
15.273 18.539301 192.05499
15.4192 18.554399 192.211
15.5618 18.564899 192.32001
15.706 18.577101 192.446
-6.7495399 18.568899 190.983
-6.6141 18.561899 190.911
-6.4790502 18.5557 190.84801
-6.34375 18.548599 190.77499
-6.2083902 18.541 190.696
-6.07336 18.534 190.625
-5.93783 18.5252 190.534
-5.8039699 18.521299 190.494
-5.6701102 18.5172 190.452
-5.5360398 18.5123 190.401
-5.4028101 18.509899 190.377
-5.2686701 18.504299 190.319
-5.1349902 18.5 190.27499
-5.0015702 18.4965 190.23801
-4.86797 18.492001 190.19299
-4.7343402 18.487301 190.14301
-4.6013699 18.4848 190.119
-4.4683099 18.481899 190.088
-4.3354402 18.479601 190.065
-4.2025099 18.4769 190.037
-4.0690498 18.4716 189.983
-3.93594 18.4676 189.94099
-3.8027899 18.4631 189.895
-3.66991 18.4597 189.86
-3.5374 18.457899 189.841
-3.4054301 18.4589 189.85201
-3.27321 18.458599 189.849
-3.1406 18.455999 189.82201
-3.00825 18.4548 189.80901
-2.8763101 18.455999 189.82201
-2.74424 18.456499 189.827
-2.6115899 18.4529 189.78999
-2.4797101 18.4547 189.80901
-2.34745 18.4538 189.799
-2.2152901 18.4536 189.797
-2.08337 18.455299 189.815
-1.95118 18.454901 189.811
-1.81905 18.454901 189.811
-1.6870199 18.4561 189.823
-1.55503 18.458 189.843
-1.4227099 18.4559 189.821
-1.29062 18.456699 189.82899
-1.1586699 18.459801 189.862
-1.0265501 18.460699 189.871
-0.89439702 18.4613 189.877
-0.76213402 18.4594 189.85699
-0.62994099 18.4587 189.85001
-0.497733 18.4571 189.83299
-0.36565799 18.461 189.873
-0.233505 18.4632 189.896
-0.101319 18.464899 189.914
0.030882301 18.4603 189.866
0.16302501 18.4566 189.828
0.29523 18.4601 189.864
0.427405 18.4601 189.864
0.55956 18.459499 189.858
0.69181502 18.4617 189.881
0.82401001 18.462 189.883
0.95600897 18.4583 189.84599
1.08813 18.4576 189.838
1.22019 18.4561 189.823
1.35272 18.461399 189.87801
1.48522 18.465401 189.918
1.61734 18.4643 189.908
1.74913 18.4599 189.862
1.8808399 18.4554 189.81599
2.0134301 18.459499 189.858
2.1459501 18.4625 189.88901
2.2782099 18.4631 189.895
2.4101501 18.4611 189.875
2.5418 18.4573 189.83501
2.6734099 18.453501 189.79601
2.80562 18.454 189.802
2.93784 18.454599 189.808
3.0704401 18.457399 189.83701
3.2025101 18.4569 189.83099
3.3340099 18.4533 189.79401
3.4651999 18.448299 189.743
3.5969701 18.446699 189.726
3.7289901 18.4464 189.72301
3.8613999 18.448 189.739
3.9934299 18.447701 189.737
4.12503 18.445601 189.715
4.25666 18.443701 189.69501
4.3894901 18.446899 189.728
4.52141 18.446199 189.722
4.6531601 18.444901 189.70799
4.7856798 18.446699 189.726
4.9176402 18.446301 189.722
5.0486002 18.4422 189.67999
5.18121 18.444201 189.701
5.3130698 18.443501 189.69299
5.4450898 18.443399 189.692
5.57724 18.443701 189.696
5.7088099 18.442101 189.679
5.8398499 18.438999 189.647
5.9716301 18.4382 189.63901
6.1041298 18.439699 189.65401
6.2355599 18.437901 189.636
6.36728 18.437 189.627
6.4983602 18.434401 189.60001
6.6289902 18.430599 189.561
6.7606101 18.429701 189.55099
6.89323 18.4314 189.57001
7.0253701 18.4319 189.57401
7.1579599 18.4335 189.591
7.28865 18.430201 189.55701
7.4193201 18.427 189.524
7.5510702 18.4266 189.519
7.6849298 18.4312 189.567
7.81635 18.429899 189.554
7.9513102 18.436899 189.625
8.0833302 18.436899 189.625
8.2125998 18.4307 189.562
8.3436899 18.428801 189.54201
8.4780397 18.434 189.59599
8.6126604 18.439699 189.65401
8.7463102 18.4431 189.689
8.8789997 18.444401 189.703
9.0096302 18.4415 189.673
9.1427002 18.443501 189.694
9.2760601 18.4461 189.72099
9.41008 18.450001 189.75999
9.5433798 18.452299 189.784
9.6758699 18.452999 189.791
9.8080902 18.453199 189.793
9.94238 18.457199 189.834
10.0764 18.4606 189.869
10.2078 18.459101 189.854
10.3398 18.459 189.853
10.4747 18.463699 189.901
10.611 18.4709 189.97501
10.7474 18.478001 190.048
10.8786 18.476101 190.028
11.0125 18.4788 190.05701
11.1476 18.4834 190.104
11.2836 18.489401 190.166
11.4208 18.4972 190.245
11.5547 18.499599 190.27
11.6883 18.5014 190.289
11.8231 18.504999 190.326
11.9596 18.5112 190.39
12.0954 18.516199 190.44099
12.2297 18.518801 190.468
12.3642 18.5217 190.49699
12.5 18.5264 190.54601
12.6363 18.531799 190.60201
12.7712 18.535 190.634
12.9039 18.535 190.634
13.0391 18.538601 190.67101
13.1773 18.5462 190.75
13.3144 18.552099 190.811
13.4496 18.555401 190.84399
13.5865 18.5609 190.901
13.7231 18.565901 190.953
13.8591 18.57 190.995
14.0014 18.582399 191.123
14.1392 18.588699 191.187
14.2781 18.5963 191.265
14.418 18.605 191.354
14.5587 18.614599 191.453
14.6989 18.6234 191.543
14.8404 18.6336 191.64799
14.9803 18.641701 191.73199
15.1221 18.651899 191.83701
15.2632 18.6612 191.93201
15.4093 18.6763 192.08701
15.5528 18.688101 192.209
15.692 18.694401 192.274
15.8352 18.7055 192.388
-7.1546102 18.7181 191.149
-7.0188198 18.710899 191.075
-6.8827 18.7024 190.989
-6.74719 18.6954 190.916
-6.6125698 18.690599 190.867
-6.4773202 18.683701 190.797
-6.3422499 18.677099 190.729
-6.2069201 18.669399 190.651
-6.0717802 18.6619 190.575
-5.9363599 18.653299 190.487
-5.8028498 18.6504 190.457
-5.6690402 18.6464 190.416
-5.5352402 18.6422 190.373
-5.40168 18.638599 190.33701
-5.2676301 18.6332 190.28101
-5.13381 18.6283 190.231
-5.0007401 18.6259 190.207
-4.8675599 18.6229 190.177
-4.7340498 18.6185 190.132
-4.6008401 18.615101 190.097
-4.4676099 18.611401 190.05901
-4.3348899 18.6096 190.041
-4.2023001 18.608299 190.02699
-4.06916 18.604401 189.987
-3.9359 18.599701 189.939
-3.80269 18.5949 189.89
-3.6698999 18.5919 189.85899
-3.5372 18.5891 189.83099
-3.4054999 18.591499 189.856
-3.27318 18.5907 189.847
-3.1406701 18.5886 189.826
-3.00822 18.5867 189.80701
-2.87639 18.588699 189.827
-2.74422 18.5886 189.826
-2.6115301 18.5847 189.786
-2.4795899 18.5861 189.8
-2.34742 18.585699 189.797
-2.0833299 18.5872 189.812
-1.95122 18.5875 189.814
-1.8191 18.587601 189.81599
-1.68709 18.5891 189.83099
-1.55506 18.5905 189.84599
-1.4227 18.587999 189.82001
-1.29052 18.5875 189.815
-1.15864 18.5916 189.856
-1.02653 18.5926 189.867
-0.894445 18.594601 189.88699
-0.76212102 18.591299 189.854
-0.62994301 18.591 189.85001
-0.497731 18.589199 189.832
-0.36565399 18.593 189.871
-0.23351499 18.596201 189.90401
-0.10132 18.597401 189.91499
0.030881099 18.591801 189.85899
0.16302399 18.588699 189.827
0.29521501 18.5914 189.854
0.427387 18.5916 189.856
0.55954599 18.591299 189.853
0.691746 18.592199 189.862
0.82393903 18.5926 189.867
0.955966 18.589701 189.83701
1.08813 18.589899 189.839
1.2202899 18.59 189.84
1.3527 18.593399 189.875
1.48518 18.5972 189.91299
1.61734 18.5966 189.908
1.74914 18.592199 189.86301
1.88094 18.5886 189.826
2.01351 18.592501 189.866
2.1459701 18.594999 189.89101
2.2779901 18.593599 189.877
2.4101701 18.5935 189.87601
2.5418601 18.589899 189.84
2.6733201 18.5851 189.78999
2.8055899 18.586 189.8
2.93771 18.586 189.799
3.0703101 18.5889 189.82899
3.2023399 18.5882 189.821
3.33391 18.584999 189.789
3.46503 18.579599 189.73399
3.59672 18.577499 189.713
3.7288001 18.5776 189.713
3.86116 18.579 189.728
3.9932699 18.5791 189.729
4.1248598 18.5769 189.707
4.2562599 18.573999 189.677
4.3887901 18.576099 189.698
4.52074 18.5756 189.694
4.6528502 18.575899 189.696
4.7853298 18.577499 189.71201
4.9171801 18.5767 189.70399
5.0482502 18.573 189.66701
5.1807299 18.5746 189.683
5.31286 18.5749 189.686
5.44486 18.574699 189.68401
5.57691 18.574699 189.68401
5.7082601 18.5725 189.661
5.83917 18.568899 189.625
5.9707599 18.5676 189.61099
6.1037698 18.5707 189.64301
6.2354102 18.5695 189.631
6.3669801 18.568199 189.618
6.4972701 18.5634 189.56799
6.6276598 18.558901 189.52299
6.7588301 18.556801 189.50101
6.8924999 18.561501 189.55
7.0250902 18.5632 189.567
7.1579099 18.565399 189.589
7.2884998 18.561899 189.55299
7.4189401 18.5581 189.51401
7.5502501 18.556601 189.49899
7.6839099 18.560801 189.54201
7.8166199 18.562599 189.56
7.9513302 18.569 189.62601
8.0834703 18.5693 189.629
8.2111597 18.5595 189.52901
8.3421001 18.557301 189.506
8.4773598 18.5646 189.58099
8.6126604 18.5718 189.65401
8.74722 18.577101 189.709
8.8789301 18.576401 189.701
9.00846 18.571199 189.64799
9.1418304 18.5739 189.67599
9.2753601 18.5769 189.70599
9.4099398 18.5819 189.757
9.5425301 18.5828 189.767
9.6747799 18.583099 189.77
9.8071098 18.5835 189.774
9.9438696 18.592199 189.86301
10.0772 18.5944 189.88499
10.2075 18.5909 189.849
10.3391 18.5898 189.838
10.4732 18.593399 189.875
10.6101 18.6017 189.96001
10.7472 18.6101 190.045
10.8773 18.6063 190.007
11.0102 18.607401 190.01801
11.1451 18.6117 190.062
11.2823 18.619699 190.144
11.4198 18.628099 190.229
11.5539 18.6308 190.257
11.6864 18.630899 190.258
11.8207 18.6339 190.28799
11.9585 18.642099 190.37199
12.095 18.6483 190.435
12.2288 18.6502 190.455
12.3623 18.651501 190.468
12.4973 18.6551 190.505
12.6345 18.6619 190.575
12.7696 18.665501 190.61099
13.0379 18.6695 190.65199
13.1727 18.6726 190.683
13.3104 18.679501 190.754
13.4471 18.684999 190.81
13.5831 18.689199 190.854
13.7186 18.6929 190.89101
13.8552 18.697901 190.942
13.9971 18.709801 191.064
14.135 18.716299 191.13
14.2733 18.7232 191.2
14.4127 18.7314 191.285
14.6916 18.7474 191.448
14.8328 18.757401 191.55
14.972 18.764799 191.62601
15.1137 18.775101 191.731
15.2546 18.784201 191.82401
15.3988 18.7973 191.95799
15.5439 18.811199 192.099
15.6836 18.818399 192.172
15.8239 18.826099 192.25101
15.9647 18.834299 192.33501
16.1124 18.8505 192.5
-7.2888198 18.8542 191.179
-7.15341 18.848101 191.117
-7.0166702 18.8382 191.01601
-6.8800702 18.8283 190.916
-6.7455602 18.823799 190.87
-6.6110902 18.8193 190.82401
-6.4758201 18.812201 190.75301
-6.3407402 18.805401 190.68401
-6.2054901 18.7978 190.60699
-6.07055 18.790899 190.536
-5.9352102 18.782301 190.45
-5.8018298 18.7798 190.424
-5.6682401 18.7764 190.38901
-5.53444 18.7721 190.34599
-5.40065 18.767599 190.30099
-5.2667298 18.762501 190.24899
-5.13306 18.757999 190.203
-5.0001001 18.756001 190.18201
-4.8674502 18.754999 190.172
-4.7339101 18.750401 190.12601
-4.6006999 18.746901 190.091
-4.4672899 18.742399 190.045
-4.33461 18.740801 190.028
-4.2021399 18.74 190.02
-4.0693302 18.737499 189.995
-3.93593 18.7321 189.94099
-3.8027799 18.7276 189.895
-3.6701901 18.725599 189.87399
-3.2734101 18.724199 189.86
-3.1409299 18.722401 189.842
-3.0084 18.7201 189.81799
-2.8766799 18.722799 189.84599
-2.74436 18.721701 189.83501
-2.6117401 18.718399 189.80099
-2.47967 18.718901 189.806
-2.34758 18.7192 189.80901
-2.21524 18.717501 189.79201
-2.08341 18.7201 189.819
-1.9513201 18.720699 189.825
-1.81925 18.7215 189.832
-1.6872 18.7225 189.843
-1.55509 18.7232 189.85001
-1.42277 18.7211 189.82899
-1.2905999 18.7208 189.825
-1.15871 18.725 189.869
-1.02654 18.725 189.869
-0.89448202 18.7276 189.895
-0.76211298 18.7234 189.85201
-0.62993699 18.723 189.849
-0.49776599 18.722799 189.84599
-0.36566499 18.725901 189.877
-0.23351 18.7281 189.899
-0.101315 18.728901 189.907
0.030880099 18.723499 189.853
0.16302399 18.7209 189.827
0.29521701 18.7237 189.855
0.42742199 18.7253 189.87199
0.55956697 18.724199 189.86
0.69175702 18.724701 189.86501
0.82395202 18.7251 189.87
0.956025 18.723101 189.849
1.08816 18.722601 189.84399
1.22042 18.724199 189.86
1.35277 18.726601 189.88499
1.48514 18.728901 189.908
1.61737 18.7292 189.911
1.74923 18.7255 189.87399
1.8812799 18.7241 189.86
2.0136199 18.7257 189.87601
2.1459501 18.726999 189.88901
2.2778699 18.7248 189.866
2.41026 18.7265 189.883
2.54195 18.722799 189.84599
2.67346 18.7183 189.8
2.8058701 18.7201 189.819
2.9379799 18.7199 189.817
3.0703199 18.7211 189.82899
3.20245 18.721001 189.828
3.3338399 18.7167 189.785
3.4652801 18.7131 189.74699
3.5970199 18.7113 189.729
3.72913 18.711399 189.731
3.8611 18.710899 189.72501
3.99313 18.7106 189.72301
4.12498 18.7096 189.71201
4.2564802 18.7071 189.687
4.3887901 18.7082 189.698
4.52072 18.707701 189.69299
4.65276 18.7076 189.692
4.7853398 18.7097 189.713
4.91715 18.7087 189.703
5.04811 18.704599 189.661
5.1806402 18.7064 189.67999
5.31284 18.7069 189.685
5.4447699 18.706499 189.681
5.5767298 18.7062 189.67799
5.7079501 18.703501 189.651
5.8386698 18.699301 189.608
5.9702802 18.6982 189.59599
6.1036901 18.702499 189.64
6.2354698 18.701799 189.633
6.36693 18.700199 189.616
6.62778 18.691299 189.526
6.7585902 18.6882 189.495
6.89223 18.692801 189.54201
7.0249801 18.695 189.564
7.1575799 18.6966 189.58
7.2883902 18.6936 189.55
7.4187102 18.689501 189.508
7.5501399 18.688299 189.496
7.6837201 18.692301 189.537
7.81635 18.693899 189.55299
7.9506102 18.6994 189.608
8.0826397 18.6994 189.60899
8.2115202 18.692301 189.537
8.3429403 18.6912 189.52499
8.4774799 18.696899 189.58299
8.6122904 18.7031 189.646
8.7477102 18.7103 189.71899
8.87922 18.709101 189.70799
9.0078297 18.702 189.63499
9.1400204 18.702299 189.638
9.2742205 18.706699 189.683
9.4101801 18.7145 189.76199
9.5429401 18.715799 189.77499
9.6753798 18.7164 189.78101
9.8067102 18.714899 189.76601
9.9415398 18.719999 189.81799
10.075 18.722601 189.84399
10.2066 18.7215 189.83299
10.3392 18.722401 189.842
10.4732 18.725599 189.87399
10.609 18.7321 189.94
10.7438 18.7365 189.985
10.8775 18.738899 190.009
11.0115 18.741899 190.03999
11.1456 18.7449 190.07001
11.4175 18.756901 190.192
11.5522 18.760599 190.229
11.686 18.762699 190.25101
11.8204 18.766001 190.284
11.9564 18.7714 190.339
12.0924 18.776899 190.394
12.2277 18.781099 190.437
12.362 18.783701 190.463
12.4976 18.7882 190.509
12.6338 18.7936 190.564
12.7693 18.7978 190.606
12.9053 18.802601 190.655
13.0381 18.802601 190.655
13.1715 18.8036 190.666
13.3078 18.808701 190.717
13.4456 18.8158 190.789
13.5817 18.8202 190.834
13.7166 18.823 190.862
13.8536 18.8286 190.91901
14.1309 18.843901 191.07401
14.2692 18.851 191.146
14.4085 18.8592 191.229
14.5468 18.8659 191.297
14.6855 18.872999 191.369
14.827 18.883499 191.476
14.9658 18.8904 191.54601
15.1059 18.898899 191.631
15.2482 18.909901 191.744
15.3911 18.921499 191.86099
15.5336 18.932501 191.972
15.676 18.943001 192.078
15.8155 18.9499 192.14799
15.9568 18.9589 192.24001
16.1012 18.971399 192.367
16.387899 18.9932 192.588
-7.2874398 18.983801 191.14301
-7.1511002 18.9751 191.05499
-7.0149698 18.9667 190.97
-6.8783698 18.9566 190.868
-6.7437701 18.9517 190.82001
-6.6094499 18.9475 190.77699
-6.4745898 18.9415 190.717
-6.3394399 18.934401 190.645
-6.2046299 18.927999 190.58099
-6.0699401 18.9217 190.517
-5.93472 18.913401 190.43401
-5.8013301 18.910801 190.407
-5.6676602 18.907 190.37
-5.5338602 18.9027 190.326
-5.4000201 18.898001 190.27901
-5.2662001 18.893101 190.229
-5.13272 18.889299 190.19099
-4.9998398 18.8874 190.172
-4.8675098 18.887699 190.175
-4.73383 18.8825 190.123
-4.60079 18.8797 190.095
-4.4674101 18.875299 190.05
-4.33463 18.873199 190.02901
-4.2021198 18.8722 190.019
-4.0694098 18.870199 189.99899
-3.9360399 18.865 189.946
-3.80304 18.8612 189.908
-3.6705201 18.859501 189.89101
-3.5378301 18.856899 189.86501
-3.4061501 18.8596 189.892
-3.27368 18.858 189.87601
-3.14116 18.856001 189.856
-3.0086901 18.854099 189.83701
-2.8770599 18.8575 189.871
-2.7447 18.8563 189.85899
-2.61222 18.854099 189.836
-2.4800401 18.8538 189.834
-2.3478401 18.8535 189.83
-2.2154901 18.851801 189.814
-2.0836 18.854099 189.83701
-1.95144 18.854 189.836
-1.8194 18.8552 189.84801
-1.6872801 18.8557 189.853
-1.55507 18.855101 189.847
-1.42281 18.8538 189.834
-1.29074 18.855101 189.84599
-1.15878 18.858299 189.879
-1.02654 18.8573 189.869
-0.89447802 18.8598 189.894
-0.76214898 18.856501 189.86099
-0.62997299 18.8563 189.85899
-0.49783 18.857401 189.87
-0.36568499 18.8591 189.88699
-0.233504 18.8598 189.894
-0.101314 18.860901 189.905
0.030882901 18.857401 189.87
0.163038 18.8547 189.843
0.29524499 18.8578 189.87399
0.42747301 18.8598 189.895
0.559587 18.8571 189.867
0.69181502 18.8585 189.881
0.82399899 18.8585 189.881
0.95614898 18.8578 189.87399
1.0883 18.857201 189.868
1.22057 18.8587 189.883
1.35288 18.860399 189.89999
1.4851 18.860701 189.903
1.61745 18.8624 189.92
1.74945 18.8601 189.897
1.88168 18.8605 189.901
2.0137601 18.859301 189.88901
2.1459899 18.8596 189.892
2.27812 18.8591 189.88699
2.4105301 18.860901 189.905
2.5421901 18.856899 189.864
2.67397 18.854 189.836
2.8062899 18.8552 189.84801
2.9384401 18.855 189.84599
3.07056 18.854799 189.84399
3.2028501 18.8556 189.851
3.3341601 18.8508 189.80299
3.4660001 18.8491 189.787
3.5976801 18.8468 189.763
3.7298901 18.847401 189.769
3.86148 18.844801 189.743
3.9933801 18.844 189.735
4.1255398 18.844299 189.73801
4.25703 18.8417 189.71201
4.3894501 18.843201 189.72701
4.5213299 18.8424 189.71899
4.6529298 18.840401 189.69901
4.7856798 18.843201 189.726
4.91751 18.842199 189.717
5.0483899 18.8377 189.672
5.1808901 18.839399 189.689
5.3131599 18.8402 189.69701
5.4445901 18.837999 189.675
5.5766802 18.8382 189.67599
5.7080102 18.8358 189.653
5.8388801 18.8321 189.61501
5.9707499 18.831699 189.61099
6.1043 18.8365 189.659
6.2361002 18.8358 189.65199
6.3675399 18.834 189.63499
6.4979501 18.829399 189.588
6.6284099 18.8251 189.54401
6.7589102 18.820999 189.504
6.8922 18.8248 189.541
7.0251498 18.8274 189.56799
7.1572399 18.827801 189.571
7.2885199 18.826 189.554
7.4189801 18.822201 189.515
7.5509501 18.8223 189.51601
7.6840301 18.8251 189.545
7.8157301 18.824499 189.539
7.9495101 18.8288 189.582
8.0817499 18.829399 189.588
8.2127104 18.827101 189.565
8.3448 18.8274 189.567
8.4774599 18.828899 189.58299
8.61203 18.8346 189.64
8.7466402 18.8402 189.696
8.8785 18.839701 189.692
9.0079098 18.8342 189.636
9.13976 18.8339 189.633
9.2744303 18.8393 189.687
9.4099703 18.8463 189.758
9.5423403 18.8468 189.763
9.6751804 18.8482 189.77699
9.8063602 18.846399 189.759
9.9394102 18.8482 189.778
10.0733 18.851601 189.812
10.2063 18.853201 189.828
10.3399 18.855801 189.854
10.4738 18.858999 189.886
10.6086 18.8636 189.93201
10.7425 18.8666 189.96201
10.8761 18.8689 189.985
11.0116 18.874399 190.041
11.1459 18.877899 190.076
11.2813 18.882999 190.12801
11.4166 18.8878 190.17599
11.5501 18.8897 190.19501
11.6856 18.894699 190.245
11.8213 18.899799 190.297
11.9561 18.9035 190.334
12.0917 18.9084 190.383
12.2269 18.9126 190.425
12.3621 18.916599 190.466
12.4985 18.9224 190.524
12.6337 18.926201 190.562
12.7687 18.929501 190.59599
12.904 18.9335 190.636
13.0378 18.934999 190.65199
13.1727 18.938101 190.68201
13.3067 18.939899 190.701
13.4442 18.9466 190.76801
13.5812 18.9524 190.827
13.7166 18.955999 190.86301
13.8521 18.9596 190.899
13.9874 18.9629 190.93201
14.2652 18.9788 191.092
14.4044 18.9869 191.174
14.5415 18.992201 191.22701
14.6797 18.9988 191.293
14.9605 19.017099 191.478
15.0987 19.023399 191.541
15.2408 19.0343 191.651
15.3855 19.0483 191.79201
15.526 19.0567 191.877
15.6679 19.066999 191.98
15.8072 19.073799 192.048
16.0905 19.092699 192.239
16.2334 19.103201 192.345
16.5198 19.124901 192.563
16.663401 19.135799 192.673
-7.4222298 19.121401 191.187
-7.2863998 19.114201 191.11501
-7.1493402 19.1035 191.008
-7.01334 19.0952 190.92599
-6.87707 19.085899 190.83299
-6.7424302 19.080799 190.782
-6.6082401 19.0769 190.742
-6.47369 19.071699 190.69
-6.3386998 19.064899 190.62199
-6.20435 19.0599 190.57201
-6.0697198 19.053699 190.50999
-5.9348602 19.046499 190.439
-5.8014498 19.0438 190.411
-5.6675601 19.039301 190.366
-5.5338602 19.0352 190.326
-5.4001498 19.031 190.283
-5.2663798 19.0263 190.23599
-5.1328201 19.0221 190.194
-5.0000701 19.0208 190.181
-4.8677101 19.020901 190.18201
-4.73388 19.0151 190.125
-4.6010098 19.013 190.103
-4.46773 19.009001 190.063
-4.3347101 19.005899 190.033
-4.2023001 19.0054 190.02699
-4.0697098 19.004 190.013
-3.93641 18.9991 189.964
-3.80358 18.996099 189.93401
-3.67084 18.993401 189.908
-3.5383501 18.991899 189.892
-3.4063499 18.993 189.90401
-3.27404 18.9923 189.897
-3.1414001 18.9897 189.87
-3.00895 18.988001 189.853
-2.8773999 18.992001 189.894
-2.74508 18.991199 189.88499
-2.6126001 18.9891 189.864
-2.48037 18.988701 189.86
-2.34798 18.986799 189.842
-2.21575 18.9863 189.836
-2.0838001 18.988199 189.855
-1.9516 18.987801 189.851
-1.81955 18.9891 189.864
-1.68744 18.9897 189.87
-1.55515 18.9883 189.85699
-1.42293 18.9877 189.85001
-1.2909 18.9897 189.87
-1.15879 18.990801 189.882
-1.02653 18.9895 189.868
-0.89445603 18.9916 189.88901
-0.76222599 18.990601 189.88
-0.63004398 18.9907 189.881
-0.49790299 18.992399 189.89799
-0.36572301 18.993401 189.907
-0.233518 18.993299 189.90601
-0.10132 18.9942 189.91499
0.030888099 18.992901 189.90199
0.163078 18.991699 189.89
0.295295 18.993299 189.90601
0.42752701 18.994499 189.91901
0.55966097 18.991899 189.892
0.691899 18.993099 189.90401
0.82411897 18.9935 189.908
0.95632201 18.9935 189.908
1.0886199 18.995001 189.924
1.22087 18.9956 189.929
1.35303 18.994699 189.92
1.48523 18.994499 189.91901
1.61762 18.9967 189.94099
1.74974 18.995501 189.92799
1.88209 18.996901 189.942
2.0141101 18.9949 189.923
2.1462801 18.994499 189.918
2.2783699 18.9935 189.908
2.4109399 18.9963 189.937
2.54263 18.992399 189.897
2.6747501 18.9918 189.89101
2.8067701 18.990601 189.88
2.9389999 18.9909 189.883
3.0710001 18.989799 189.871
3.2032101 18.989901 189.873
3.3348801 18.987 189.84399
3.4669499 18.986601 189.839
3.59849 18.983299 189.806
3.7307999 18.9842 189.815
3.86234 18.9813 189.786
3.9942999 18.980499 189.778
4.1265502 18.9811 189.785
4.2577801 18.9772 189.745
4.3902602 18.9788 189.76199
4.5222301 18.9783 189.756
4.6535902 18.9753 189.726
4.7863202 18.9778 189.752
4.9183002 18.9774 189.748
5.0492201 18.973 189.703
5.1813102 18.973101 189.70399
5.3134198 18.973301 189.70599
5.4449701 18.9715 189.688
5.5771699 18.972 189.69299
5.70855 18.9697 189.67101
5.8396001 18.966499 189.63901
5.9716101 18.966499 189.638
6.1045399 18.969299 189.66701
6.23667 18.969601 189.66901
6.3678098 18.9669 189.64301
6.49895 18.964399 189.617
6.6292801 18.9596 189.569
6.7600899 18.956301 189.537
6.8931098 18.959299 189.56599
7.0259199 18.961599 189.589
7.1571398 18.9596 189.569
7.28895 18.959101 189.565
7.4197202 18.9561 189.534
7.5521002 18.957199 189.545
7.6844001 18.958 189.554
7.8162298 18.957701 189.55099
7.9492502 18.960199 189.576
8.0819302 18.961901 189.592
8.2132101 18.9603 189.576
8.3462696 18.962799 189.601
8.4784698 18.9632 189.606
8.6121798 18.966999 189.64301
8.7450199 18.9688 189.661
8.8775797 18.9699 189.673
