# .PCD v0.7 - Point Cloud Data file format
VERSION 0.7
FIELDS x y z
SIZE 4 4 4
TYPE F F F
COUNT 1 1 1
WIDTH 1744
HEIGHT 1
VIEWPOINT 0 0 0 1 0 0 0
POINTS 1744
DATA ascii
7.5760999 4.5811601 190.14799
7.7105899 4.5824199 190.2
7.8455801 4.58393 190.26199
7.9828601 4.5867 190.37801
8.1197796 4.58918 190.48
8.2542801 4.59023 190.524
8.3888102 4.59127 190.567
8.5231104 4.5921502 190.604
8.6560602 4.5922899 190.61
8.7902298 4.59307 190.642
8.9236898 4.5934501 190.658
9.0538197 4.5921302 190.603
9.1880999 4.5929298 190.636
9.3254299 4.5952001 190.73
9.4601097 4.5961299 190.769
9.59447 4.5968699 190.8
9.7291203 4.5977402 190.836
9.8613396 4.5974398 190.823
9.9961996 4.5983701 190.862
10.1309 4.5991998 190.897
10.2667 4.6005001 190.95
10.4016 4.6013799 190.987
10.5391 4.6033802 191.07001
10.6783 4.60602 191.179
10.8166 4.6082301 191.271
10.957 4.61131 191.399
11.101 4.6157598 191.584
11.2483 4.62148 191.821
11.3952 4.6269398 192.048
11.5413 4.6319098 192.254
11.6804 4.6339898 192.34
11.9608 4.6388798 192.54401
12.1011 4.6412902 192.64301
12.3941 4.6505699 193.02901
12.688 4.6598201 193.41299
12.8333 4.6636801 193.573
12.9807 4.66822 193.761
13.1322 4.67414 194.007
13.4348 4.6854601 194.47701
13.5859 4.6908998 194.703
13.7367 4.6961198 194.91901
13.8878 4.7013302 195.136
14.0437 4.7080598 195.41499
-2.4937401 4.7318401 190.883
-2.2255599 4.7267098 190.67599
-2.09203 4.7249198 190.604
-1.95848 4.7228498 190.521
-1.82556 4.7221098 190.491
-1.69271 4.7214298 190.463
-1.55972 4.7202401 190.41499
-1.42699 4.7196598 190.392
-1.29424 4.7189002 190.36099
-1.16154 4.7181702 190.332
-1.02889 4.7175002 190.30499
-0.896061 4.7156501 190.23
-0.763363 4.7139902 190.16299
-0.63091201 4.71347 190.142
-0.498422 4.7123199 190.09599
-0.36603901 4.7117 190.071
-0.23370899 4.7114701 190.062
-0.101384 4.7108598 190.037
0.0309055 4.7101698 190.009
0.163166 4.7097402 189.992
0.29534301 4.7083702 189.937
0.42750499 4.7076898 189.909
0.55971301 4.7076998 189.91
0.69179499 4.7068601 189.87601
0.82392102 4.7065401 189.86301
0.95611799 4.7066598 189.868
1.08807 4.7056699 189.827
1.21989 4.7044201 189.77699
1.35217 4.7050099 189.80099
1.48401 4.7040901 189.76401
1.6158299 4.7032399 189.73
1.74804 4.7035999 189.744
1.87984 4.7028599 189.714
2.01144 4.7017598 189.67
2.1432099 4.70119 189.647
2.2749801 4.7006602 189.625
2.4066601 4.7000299 189.60001
2.6698401 4.6986098 189.543
2.8013401 4.6978502 189.51199
2.9328699 4.6972098 189.48599
3.06546 4.6982598 189.528
3.1976299 4.6985898 189.54201
3.3303499 4.6996799 189.586
3.4626999 4.7001801 189.606
3.59498 4.7005601 189.621
3.72632 4.6997199 189.58701
3.8585401 4.7000098 189.599
3.99049 4.6999698 189.597
4.12393 4.7016201 189.664
4.2567601 4.7024899 189.69901
4.3895102 4.7032299 189.729
4.5219402 4.7035999 189.744
4.6542902 4.7038598 189.754
4.7859402 4.7034101 189.737
4.9190698 4.7044201 189.77699
5.0524402 4.7055898 189.82401
5.1845498 4.7055602 189.823
5.3173099 4.7061 189.845
5.4510002 4.7074199 189.89799
5.5834599 4.7076402 189.907
5.71627 4.7081399 189.927
5.8494301 4.70889 189.95799
5.98176 4.7089701 189.961
6.1154799 4.7101102 190.007
6.2494998 4.7114201 190.06
6.3817801 4.7114 190.05901
6.5163002 4.7129998 190.123
6.6480999 4.7126098 190.108
6.7808199 4.7128701 190.118
6.9139299 4.7133799 190.13901
7.0473299 4.7140799 190.16701
7.17874 4.7134399 190.14101
7.3115001 4.7136898 190.151
7.4431801 4.7132502 190.133
7.5775599 4.71451 190.18401
7.7139902 4.71698 190.284
7.8500199 4.71912 190.37
7.9864702 4.7214398 190.464
8.12397 4.7242899 190.57899
8.2565498 4.7242398 190.577
8.3902397 4.7248101 190.60001
8.5251999 4.7260699 190.651
8.6578302 4.7260299 190.649
8.7912703 4.7264099 190.664
8.9241505 4.72649 190.66701
9.0538702 4.7249198 190.604
9.1883602 4.7258401 190.64101
9.3251801 4.7279201 190.72501
9.4609299 4.7294102 190.785
9.5946999 4.7298799 190.804
9.7300701 4.7311201 190.854
9.8615799 4.7304702 190.828
9.9969597 4.7316699 190.87601
10.1315 4.73243 190.907
10.2679 4.7340398 190.972
10.4043 4.7356501 191.037
10.5435 4.73843 191.149
10.6828 4.7411699 191.259
10.8224 4.74402 191.37399
10.9662 4.74862 191.56
11.1109 4.7534399 191.755
11.2584 4.7593699 191.994
11.4045 4.7645702 192.203
11.5479 4.7685399 192.364
11.6871 4.77071 192.451
11.827 4.7730799 192.547
11.9674 4.77561 192.649
12.1097 4.7788501 192.78
12.2543 4.7828999 192.94299
12.5479 4.79245 193.328
12.6947 4.79706 193.51401
12.8408 4.8013 193.685
12.9872 4.8055801 193.858
13.14 4.81212 194.12199
13.2883 4.8169198 194.315
13.4415 4.8233399 194.57401
13.5986 4.8310399 194.88499
13.7512 4.8369799 195.125
13.903 4.8425202 195.34801
14.0582 4.8491602 195.616
14.2201 4.8579402 195.97
-2.36115 4.8653998 190.907
-2.0926099 4.8590298 190.657
-1.95907 4.8570199 190.578
-1.82614 4.8563199 190.55099
-1.56016 4.8542099 190.468
-1.42747 4.85391 190.45599
-1.2946 4.8528399 190.414
-1.16186 4.8520899 190.38499
-1.0290999 4.8510499 190.34399
-0.89632797 4.8495998 190.287
-0.76359302 4.8478999 190.22
-0.631046 4.84694 190.183
-0.49849701 4.8454499 190.12399
-0.36611101 4.8450398 190.108
-0.101403 4.84412 190.07201
0.0309096 4.8431602 190.034
0.163188 4.84272 190.017
0.29539001 4.8414402 189.967
0.42759699 4.8410001 189.95
0.55983198 4.8410101 189.95
0.69188702 4.8397598 189.901
0.82401299 4.8393302 189.884
0.95626998 4.8396802 189.89799
1.08814 4.8382101 189.84
1.22005 4.8372302 189.802
1.35238 4.8379598 189.83
1.48439 4.8374901 189.812
1.61623 4.8366098 189.77699
1.74827 4.8364 189.769
1.8800499 4.8355498 189.73599
2.0118401 4.8348498 189.70799
2.14363 4.8342299 189.68401
2.27578 4.8344498 189.69299
2.4072101 4.83319 189.64301
2.5387499 4.8322802 189.60699
2.6705101 4.8318501 189.591
2.8018899 4.8308101 189.55
2.9333401 4.8299699 189.517
3.06599 4.8311 189.561
3.19823 4.8315201 189.578
3.33097 4.8326302 189.621
3.4626801 4.8322201 189.605
3.59497 4.8326201 189.621
3.72647 4.8319702 189.595
3.85864 4.83219 189.604
3.9908199 4.8324299 189.61301
4.1240301 4.8338299 189.668
4.2569399 4.8348298 189.707
4.3897099 4.8356099 189.73801
4.5222301 4.8360701 189.756
4.65521 4.8369899 189.79201
4.7877402 4.8374 189.808
4.9212098 4.8387098 189.86
5.0542102 4.83951 189.89101
5.1862001 4.8393102 189.883
5.31885 4.8397298 189.89999
5.45258 4.8410902 189.953
5.5847001 4.8409901 189.94901
5.7176299 4.8415799 189.972
5.85004 4.8417201 189.978
5.9823799 4.8417902 189.98
6.1154299 4.8424201 190.005
6.2495599 4.8438501 190.061
6.3820601 4.8439999 190.067
6.5159998 4.8452001 190.11501
6.6475301 4.8446102 190.091
6.7807002 4.8452101 190.11501
6.9133501 4.8454199 190.123
7.0474901 4.8466501 190.17101
7.1791601 4.8461599 190.15199
7.3126898 4.84693 190.18201
7.4454298 4.8471498 190.19099
7.5802598 4.8487 190.252
7.7177501 4.8518801 190.37601
7.8522902 4.8531199 190.425
7.9888802 4.8555598 190.521
8.1250401 4.8576798 190.604
8.2568703 4.8571701 190.584
8.3907003 4.8578401 190.61
8.5271502 4.8599801 190.694
8.6585903 4.8592401 190.66499
8.7917299 4.8594699 190.674
8.9247398 4.8596101 190.67999
9.0548401 4.8582001 190.62399
9.18929 4.8591199 190.661
9.3259602 4.8611698 190.741
9.4612503 4.8624601 190.79201
9.5951099 4.8629899 190.813
9.7302799 4.8641601 190.858
9.8628902 4.8640299 190.853
9.9988298 4.86553 190.912
10.1326 4.8659201 190.92799
10.2692 4.8677001 190.99699
10.4073 4.87008 191.091
10.5465 4.8729601 191.20399
10.6877 4.8766398 191.34801
10.8297 4.88059 191.50301
10.9738 4.8853998 191.692
11.1195 4.89081 191.90401
11.2692 4.8978 192.17799
11.4137 4.90239 192.358
11.5545 4.9053202 192.47301
11.6935 4.9074101 192.55499
11.8313 4.9089899 192.617
11.9742 4.9126 192.759
12.1164 4.9158602 192.88699
12.2651 4.9216199 193.11301
12.4108 4.9261198 193.289
12.5565 4.93046 193.46001
12.7011 4.93434 193.612
12.8493 4.9394798 193.814
12.997 4.9443698 194.005
13.2957 4.9549899 194.422
13.4525 4.9629202 194.733
13.6106 4.9711399 195.056
13.915 4.9829102 195.51801
14.0776 4.9923 195.886
-2.2284501 4.9988198 190.924
-1.95994 4.9919701 190.662
-1.82655 4.99018 190.59399
-1.69362 4.98943 190.56599
-1.42792 4.9881501 190.517
-1.2948999 4.98663 190.459
-1.16215 4.98594 190.43201
-1.02933 4.9847102 190.38499
-0.89646798 4.9829102 190.317
-0.763789 4.9816699 190.269
-0.63122201 4.9808002 190.23599
-0.498613 4.9790401 190.16901
-0.36622801 4.9790502 190.16901
-0.23377199 4.9775801 190.11301
-0.101429 4.9777899 190.121
0.0309154 4.97646 190.07001
0.16322599 4.9762301 190.061
0.295463 4.9749899 190.01401
0.427699 4.9745002 189.995
0.55989802 4.9739099 189.97301
0.69196802 4.97261 189.923
0.82415003 4.9724102 189.91499
0.95637202 4.9724798 189.918
1.08828 4.9711099 189.866
1.22031 4.97049 189.842
1.35261 4.9710102 189.862
1.48466 4.9706101 189.847
1.61645 4.96947 189.80299
1.7485 4.9692202 189.79401
1.88034 4.9684801 189.765
2.0122099 4.9678998 189.743
2.14412 4.9674702 189.72701
2.27613 4.96733 189.72099
2.4077699 4.9664302 189.687
2.5394001 4.96561 189.65601
2.6711299 4.9650602 189.63499
2.93385 4.9628501 189.55
3.06652 4.9640002 189.59399
3.19838 4.96381 189.58701
3.3313 4.9651999 189.64
3.46298 4.9647102 189.621
3.59519 4.9650002 189.633
3.72701 4.9647398 189.623
3.85923 4.9650202 189.633
3.9914601 4.9652801 189.64301
4.12467 4.9667101 189.698
4.2579198 4.9681001 189.75101
4.3903298 4.9684701 189.765
4.5232301 4.9693398 189.798
4.65625 4.9702902 189.834
4.78932 4.9712501 189.871
4.9230299 4.9727898 189.92999
5.05546 4.97299 189.938
5.1875701 4.9728799 189.93401
5.5858102 4.9742799 189.987
5.7185402 4.97469 190.00301
5.8499498 4.9739599 189.97501
5.9828 4.9744601 189.994
6.1159801 4.9752002 190.022
6.2501502 4.9767098 190.08
6.3831301 4.9772201 190.099
6.5160499 4.9776602 190.116
6.6478701 4.9772701 190.101
6.7806401 4.9775801 190.11301
6.9135098 4.9779601 190.127
7.0476799 4.9792399 190.17599
7.1803198 4.9794102 190.183
7.3147998 4.9808302 190.237
7.4482899 4.9815402 190.26401
7.5829401 4.9829798 190.319
7.7200599 4.98597 190.433
7.8534098 4.9864602 190.452
7.9899001 4.9889002 190.545
8.12572 4.99085 190.62
8.2575798 4.9903498 190.60001
8.3916197 4.9911499 190.631
8.5276804 4.9931102 190.70599
8.6598701 4.9927802 190.694
8.7931404 4.9930801 190.705
8.9257402 4.99299 190.701
9.0567503 4.9920301 190.66499
9.1915302 4.9931402 190.707
9.32724 4.99472 190.767
9.4622297 4.9958701 190.812
9.59764 4.99721 190.86301
9.7311897 4.99757 190.87601
9.8654804 4.99828 190.903
10.001 4.9995999 190.95399
10.1352 5.0002198 190.97701
10.2721 5.00214 191.05099
10.4114 5.0051398 191.166
10.5509 5.0082302 191.283
10.6937 5.0127401 191.45599
10.8394 5.0184798 191.675
10.9831 5.02319 191.855
11.1346 5.03128 192.164
11.2787 5.0358901 192.34
11.4211 5.0396299 192.483
11.5632 5.04318 192.618
11.7013 5.04492 192.685
11.8386 5.0462599 192.73599
11.9832 5.0506601 192.90401
12.1264 5.0543599 193.045
12.2735 5.0595999 193.246
12.4204 5.06464 193.438
12.5647 5.0685501 193.58701
12.7089 5.0722899 193.73
12.8577 5.0777998 193.94099
13.0077 5.0836501 194.164
13.1575 5.0893202 194.381
13.6232 5.1117201 195.23599
13.7708 5.1160898 195.403
13.9372 5.1272402 195.82899
-2.36535 5.14047 191.24699
-2.0955501 5.1318402 190.925
-1.96088 5.1272402 190.754
-1.8274601 5.1254702 190.689
-1.69426 5.1241202 190.638
-1.56074 5.12147 190.53999
-1.42819 5.12182 190.55299
-1.29532 5.1209402 190.52
-1.16248 5.1200199 190.48599
-1.02952 5.1182699 190.42101
-0.89669502 5.1167698 190.36501
-0.76393002 5.11515 190.304
-0.63138902 5.1146498 190.286
-0.498723 5.1126199 190.211
-0.36632901 5.1129198 190.222
-0.233843 5.1115398 190.17
-0.101459 5.1117201 190.177
0.16326401 5.1098199 190.106
0.29553699 5.1086202 190.061
0.42778701 5.1078901 190.034
0.560031 5.10744 190.01801
0.692182 5.1064801 189.98199
0.82428598 5.1055398 189.94701
0.95660502 5.1059999 189.964
1.0885299 5.1044998 189.908
1.22067 5.1042299 189.89799
1.35303 5.1048398 189.92101
1.4849499 5.1038198 189.883
1.61667 5.1023502 189.828
1.74872 5.1020799 189.81799
1.88064 5.10145 189.795
2.0125799 5.1010098 189.778
2.1446199 5.1008301 189.772
2.2764101 5.1001 189.745
2.40803 5.0991001 189.707
2.53988 5.09867 189.69099
2.67168 5.0981798 189.673
2.8030901 5.0970302 189.631
2.9342599 5.0955801 189.576
3.06673 5.0963998 189.60699
3.1987 5.0963602 189.606
3.4635701 5.0976601 189.65401
3.59553 5.0975599 189.64999
3.7278399 5.09796 189.66499
3.8601201 5.09828 189.677
3.99195 5.0980101 189.66701
4.1254301 5.0997801 189.733
4.3910499 5.10148 189.79601
4.52423 5.1026602 189.84
4.6577001 5.1041002 189.89301
4.7904902 5.1047401 189.91701
4.9243002 5.1064 189.979
5.0567799 5.1066198 189.987
5.1891799 5.10676 189.992
5.32268 5.1079502 190.037
5.4548402 5.10782 190.032
5.5865302 5.1072698 190.01199
5.71978 5.10814 190.04401
5.85079 5.1070199 190.002
5.9828 5.1067901 189.994
6.11625 5.10779 190.03101
6.2505798 5.1094599 190.093
6.38379 5.1101599 190.119
6.6483302 5.1100302 190.114
6.78125 5.1104598 190.13
6.9142799 5.11096 190.149
7.1822 5.1132202 190.233
7.3168998 5.1148 190.29201
7.4503002 5.1154399 190.315
7.5848098 5.1168098 190.366
7.7209201 5.1191902 190.455
7.8551698 5.1202698 190.495
7.9909401 5.1222901 190.57001
8.1261597 5.1238999 190.63
8.2582502 5.1235199 190.616
8.3925695 5.1245098 190.653
8.5283899 5.12637 190.722
8.6617899 5.12674 190.73599
8.79496 5.1269698 190.744
8.9265699 5.1262898 190.71899
9.0581398 5.1256199 190.694
9.1933098 5.1269698 190.744
9.3284397 5.1282501 190.79201
9.4635601 5.1294999 190.838
9.5999403 5.1313801 190.909
9.7334604 5.1317101 190.92101
9.8681698 5.1326499 190.955
10.0028 5.1335001 190.987
10.1382 5.1347699 191.034
10.2756 5.13694 191.11501
10.416 5.1405902 191.25101
10.5574 5.1446199 191.401
10.6995 5.14889 191.56
10.847 5.1556001 191.80901
10.9974 5.1635098 192.104
11.1489 5.1717701 192.411
11.2883 5.1742802 192.504
11.4293 5.1774201 192.621
11.571 5.18083 192.748
11.7065 5.1814399 192.771
11.8474 5.18435 192.879
11.9911 5.1884198 193.03
12.1322 5.19133 193.13901
12.2808 5.19731 193.36099
12.4273 5.20226 193.545
12.5714 5.2061701 193.69099
12.7147 5.20961 193.819
12.8663 5.2163801 194.071
13.0178 5.22295 194.315
13.1679 5.2288399 194.534
13.3147 5.2333202 194.701
13.4757 5.2432199 195.069
13.6348 5.2521901 195.403
13.9459 5.2669301 195.951
-2.2323501 5.2740002 191.258
-2.0971899 5.26893 191.07401
-1.96268 5.2649298 190.929
-1.6953 5.2601399 190.756
-1.56163 5.2571602 190.64799
-1.42871 5.2564301 190.621
-1.2958699 5.2558699 190.601
-1.16285 5.2543802 190.547
-1.02991 5.2529001 190.493
-0.89709598 5.2517099 190.45
-0.76424599 5.2498598 190.383
-0.49895 5.2474999 190.297
-0.366458 5.2472601 190.289
-0.233906 5.24542 190.222
-0.101486 5.2456002 190.228
0.0309329 5.2442002 190.177
0.16330799 5.2436399 190.157
0.295634 5.2427201 190.12399
0.42794701 5.2422099 190.105
0.56019199 5.2413001 190.07201
0.692339 5.2399902 190.02499
0.82446998 5.2390099 189.989
0.95677 5.2392201 189.99699
1.0888 5.23807 189.955
1.22103 5.23807 189.955
1.35342 5.2386198 189.97501
1.48533 5.2374201 189.93201
1.6170599 5.2358499 189.875
1.74924 5.2358298 189.87399
1.88115 5.2350898 189.847
2.0130701 5.2344398 189.82401
2.2769599 5.23352 189.78999
2.4085 5.2322698 189.745
2.54038 5.2318201 189.729
2.6722 5.2313199 189.71001
2.80369 5.2302499 189.67101
2.9349501 5.2288499 189.621
3.0674701 5.2297201 189.653
3.1990299 5.22896 189.625
3.3320501 5.2305598 189.683
3.5962601 5.23072 189.689
3.7286601 5.2312002 189.70599
3.86116 5.2318001 189.728
3.9932599 5.2318301 189.729
4.1270399 5.2339902 189.80701
4.2603402 5.2354202 189.85899
4.39252 5.2354298 189.85899
4.52637 5.23737 189.92999
4.6593399 5.2382202 189.961
4.7925401 5.2392602 189.998
4.9263802 5.2409401 190.05901
5.0583 5.24053 190.04401
5.1904302 5.2403498 190.03799
5.32376 5.2413802 190.075
5.4555101 5.2408299 190.05499
5.5876002 5.2406201 190.048
5.7210598 5.2416902 190.086
5.8520699 5.24051 190.04401
5.98382 5.2400298 190.026
6.1167998 5.2406201 190.048
6.25109 5.24229 190.108
6.3840399 5.2427802 190.12601
6.5169601 5.2432399 190.14301
6.7824502 5.2438202 190.164
6.9158201 5.2445598 190.19099
7.0499101 5.24582 190.23599
7.1847501 5.2475801 190.3
7.3192 5.2489901 190.351
7.4521599 5.24931 190.36301
7.58709 5.2509799 190.423
7.7223101 5.25279 190.489
7.8569002 5.2541099 190.537
7.9920998 5.2557902 190.59801
8.1268196 5.2571001 190.646
8.2589397 5.2567301 190.632
8.3945198 5.2585301 190.69701
8.5301399 5.2602901 190.761
8.66325 5.2604799 190.76801
8.7965202 5.2607598 190.778
8.9281197 5.2600498 190.752
9.0604296 5.2597699 190.742
9.1953602 5.2610002 190.787
9.3311501 5.26267 190.847
9.4668903 5.2642798 190.90601
9.6016703 5.2653098 190.94299
9.7362003 5.26617 190.974
9.8702803 5.2667799 190.996
10.0053 5.26788 191.036
10.1424 5.27002 191.114
10.2808 5.2727199 191.21201
10.4232 5.2774601 191.384
10.5645 5.2814798 191.53
10.7117 5.2883101 191.77699
10.8582 5.2946701 192.008
11.0147 5.3056698 192.407
11.1579 5.31006 192.56599
11.2965 5.3121901 192.64301
11.4368 5.3150601 192.74699
11.5763 5.3175201 192.83701
11.7121 5.3182402 192.86301
11.8583 5.3235898 193.05701
12.0027 5.3280501 193.218
12.1462 5.3319898 193.36099
12.2914 5.3365698 193.52699
12.4364 5.3409901 193.687
12.5797 5.3446002 193.819
12.7268 5.34969 194.00301
12.8777 5.3562999 194.243
13.0264 5.3618598 194.444
13.1783 5.3685999 194.689
13.3307 5.37538 194.935
13.4908 5.3851099 195.287
13.6485 5.3937201 195.60001
13.8113 5.40414 195.97701
-2.36991 5.4173102 191.61501
-2.0987201 5.4059601 191.214
-1.9642299 5.4021702 191.08
-1.82995 5.3984699 190.94901
-1.56253 5.3930602 190.758
-1.42932 5.39152 190.703
-1.2964799 5.39117 190.69099
-1.1633199 5.3892498 190.623
-1.0304 5.3881302 190.58299
-0.89743501 5.3864002 190.522
-0.76457 5.3847499 190.464
-0.631899 5.3840799 190.44
-0.49925101 5.3832898 190.412
-0.36659801 5.3818598 190.36099
-0.23399 5.3798399 190.28999
-0.101514 5.37956 190.28
0.030941799 5.3782101 190.23199
0.16336 5.37779 190.218
0.29575801 5.3773999 190.20399
0.56041503 5.3758302 190.14799
0.69260502 5.3744202 190.09801
0.82467598 5.3726802 190.037
0.95707297 5.37326 190.05701
1.08913 5.3720102 190.013
1.22136 5.3717899 190.005
1.48571 5.3710999 189.981
1.61762 5.3699598 189.94099
1.74986 5.3699899 189.942
1.88159 5.3685799 189.892
2.01369 5.36831 189.882
2.14592 5.3684201 189.886
2.27721 5.3663201 189.812
2.4088199 5.3651299 189.769
2.5408499 5.3649602 189.76401
2.6726301 5.3643198 189.741
2.8041699 5.3632698 189.70399
2.93559 5.3621001 189.662
3.06794 5.3626499 189.68201
3.19976 5.3622699 189.668
3.3326199 5.3635898 189.715
3.46457 5.3634 189.70799
3.5969801 5.3639302 189.72701
3.7295899 5.3646798 189.754
3.8624201 5.3656998 189.78999
3.9955101 5.3670001 189.836
4.1288099 5.3684902 189.888
4.2618699 5.3695898 189.927
4.3944302 5.3700099 189.942
4.52841 5.3720798 190.015
4.6610699 5.37252 190.03101
4.7938399 5.3730602 190.05
4.9276099 5.37466 190.10699
5.0594101 5.3740802 190.086
5.1911101 5.3734298 190.063
5.3245101 5.3745298 190.10201
5.4559302 5.37362 190.07001
5.5880399 5.3734298 190.063
5.7214899 5.3744898 190.101
5.85286 5.3736 190.069
5.9851899 5.37361 190.07001
6.1177301 5.3738098 190.077
6.2519798 5.3754702 190.13499
6.3848701 5.3759098 190.151
6.5181699 5.3766699 190.17799
6.6505799 5.3766899 190.17799
6.7835798 5.3771701 190.19501
6.9179702 5.3787098 190.25
7.0520601 5.3799701 190.295
7.18752 5.3822098 190.37399
7.3213601 5.3831701 190.408
7.4535899 5.3829298 190.399
7.58953 5.3853502 190.485
7.7239199 5.38659 190.52901
7.85812 5.38766 190.56599
8.1279602 5.3906598 190.672
8.3962498 5.3924599 190.73599
8.5303802 5.3933201 190.767
8.6637297 5.3936601 190.77901
8.7980003 5.3945498 190.81
8.9300804 5.3941002 190.79401
9.0625296 5.3938699 190.786
9.1978703 5.39536 190.839
9.3344803 5.3975301 190.91499
9.4699001 5.3989601 190.966
9.6042404 5.3997502 190.994
9.7385397 5.4004898 191.02
9.8740101 5.4018502 191.069
10.0103 5.4036398 191.132
10.1478 5.4060102 191.216
10.286 5.4086499 191.30901
10.4297 5.4141202 191.502
10.5733 5.4194002 191.689
10.7235 5.4278498 191.98801
10.8772 5.4379001 192.343
11.0246 5.4445701 192.57899
11.164 5.4471598 192.67101
11.3034 5.4496999 192.761
11.4422 5.45191 192.839
11.5804 5.4537802 192.905
11.7207 5.4565701 193.004
11.8678 5.46242 193.211
12.009 5.4654799 193.319
12.1562 5.4711699 193.52
12.3031 5.4765601 193.711
12.4464 5.48032 193.84399
12.5904 5.4842601 193.983
12.7392 5.49017 194.192
12.8882 5.4960799 194.401
13.0422 5.5039301 194.679
13.1891 5.5086899 194.847
13.3455 5.5172901 195.15199
13.5083 5.5282898 195.541
13.6684 5.5380001 195.884
-2.2363701 5.5504198 191.603
-2.1006899 5.5443401 191.39301
-1.96606 5.5404401 191.258
-1.83132 5.5356102 191.092
-1.69713 5.5318198 190.961
-1.2974 5.5279298 190.827
-1.16416 5.5260401 190.76199
-1.03081 5.5230799 190.659
-0.76498199 5.52039 190.56599
-0.63221598 5.5194898 190.535
-0.49950799 5.5187602 190.50999
-0.36677101 5.5170498 190.451
-0.23410399 5.51508 190.383
-0.101558 5.5144701 190.362
0.0309556 5.5131698 190.317
0.163427 5.5125499 190.29601
0.29588899 5.51232 190.28799
0.42829499 5.5114999 190.25999
0.56066298 5.5107002 190.23199
0.69289798 5.50915 190.17799
0.825167 5.5083299 190.14999
0.95740098 5.5075302 190.12199
1.08951 5.5062799 190.07899
1.22192 5.50668 190.093
1.35405 5.5058398 190.064
1.48634 5.5057502 190.061
1.61805 5.5037298 189.991
1.75041 5.5040102 190.00101
1.88204 5.5021501 189.937
2.0141799 5.5019102 189.92799
2.14621 5.50144 189.912
2.2776 5.4994502 189.84399
2.4093699 5.49857 189.813
2.5411401 5.4977698 189.786
2.6729701 5.49718 189.765
2.8045299 5.49611 189.728
2.9366601 5.4962101 189.73199
3.0681701 5.4951901 189.696
3.20069 5.4959798 189.724
3.3329999 5.4963598 189.737
3.46504 5.4962802 189.73399
3.59814 5.4978499 189.78799
3.7311201 5.4991102 189.832
3.86361 5.4995899 189.84801
3.99757 5.5020599 189.933
4.1310301 5.5037098 189.991
4.2634802 5.5039501 189.99899
4.3962798 5.5046201 190.022
4.52986 5.5061898 190.076
4.6630001 5.5071602 190.11
4.7954898 5.5073299 190.116
4.9284601 5.5080199 190.13901
5.0604401 5.5075998 190.125
5.19203 5.5067801 190.097
5.3259602 5.50844 190.15401
5.45719 5.5072899 190.114
5.5889702 5.5067201 190.09399
5.72224 5.5076199 190.12601
5.8544502 5.5074801 190.121
5.98596 5.5067101 190.09399
6.1196299 5.5079098 190.13499
6.2530398 5.5088301 190.16701
6.38623 5.5095201 190.19099
6.51967 5.5104098 190.222
6.6523499 5.5106201 190.229
6.7853799 5.5111098 190.246
6.9208798 5.5135398 190.33
7.0545802 5.5144801 190.362
7.1893201 5.51618 190.42101
7.3235102 5.5174098 190.464
7.45647 5.5176802 190.47301
7.5917501 5.51964 190.53999
7.7274499 5.5218201 190.616
7.8605599 5.52211 190.62601
7.9960299 5.5240202 190.692
8.1306496 5.52529 190.735
8.2622995 5.5245299 190.709
8.3975096 5.5261402 190.765
8.5327396 5.52772 190.819
8.6660004 5.5279899 190.82899
8.8004503 5.5289998 190.86301
8.9330502 5.5288301 190.858
9.0650702 5.5283098 190.84
9.2001896 5.5296798 190.88699
9.3381901 5.5327001 190.991
9.4724302 5.5334501 191.017
9.6073599 5.5345802 191.056
9.7417002 5.5353398 191.082
9.8768101 5.53651 191.123
10.0151 5.5393901 191.222
10.1539 5.54252 191.33
10.2952 5.5468998 191.481
10.4363 5.5510001 191.623
10.583 5.5580301 191.866
10.7409 5.5706301 192.30099
10.8901 5.5784898 192.57201
11.0315 5.5822001 192.7
11.1706 5.5846901 192.786
11.3087 5.5866098 192.85201
11.4468 5.58847 192.916
11.5891 5.59233 193.05
11.7319 5.5963502 193.188
11.877 5.6013298 193.36
12.024 5.6071401 193.561
12.1696 5.6121402 193.733
12.3151 5.6169901 193.901
12.4605 5.6216602 194.062
12.6031 5.62502 194.17799
12.7525 5.63129 194.395
12.9024 5.6376801 194.61501
13.0537 5.6445198 194.851
13.2043 5.6509199 195.07201
13.3606 5.6595998 195.37199
13.523 5.67068 195.754
13.6814 5.6798601 196.071
-2.1026599 5.6829901 191.573
-1.9673899 5.6774702 191.38699
-1.83279 5.6732502 191.245
-1.6981699 5.6683202 191.078
-1.56458 5.6662202 191.008
-1.43129 5.6649699 190.966
-1.1648901 5.6624599 190.881
-1.0317301 5.6609402 190.83
-0.89869303 5.6597199 190.789
-0.765544 5.65728 190.70599
-0.499879 5.6556501 190.651
-0.36702901 5.6536899 190.58501
-0.234264 5.6515398 190.513
-0.101603 5.64957 190.446
0.030966699 5.6477599 190.38499
0.163497 5.6475401 190.37801
0.29601401 5.6472402 190.368
0.42844099 5.6459599 190.325
0.56086802 5.6452699 190.302
0.82554102 5.6433301 190.23599
0.95775402 5.6420298 190.192
1.08991 5.64077 190.14999
1.22246 5.6415601 190.177
1.35462 5.6406102 190.144
1.48683 5.6400099 190.12399
1.8828599 5.63691 190.02
2.0148799 5.6361799 189.995
2.1468 5.6352601 189.964
2.27812 5.6329899 189.88699
2.4098001 5.6317801 189.847
2.5416601 5.6311102 189.82401
2.6737001 5.6308999 189.817
2.8053501 5.6299 189.783
2.9375401 5.6300402 189.78799
3.0692101 5.62921 189.75999
3.2017601 5.6300101 189.787
3.3341 5.6303701 189.799
3.4665401 5.6308799 189.817
3.59958 5.6322899 189.864
3.7327001 5.6337099 189.912
3.8654499 5.63451 189.939
3.99896 5.6363101 190
4.13271 5.63833 190.06799
4.2646298 5.6378102 190.05
4.3975801 5.6386399 190.078
4.5309401 5.6399298 190.12199
4.6637998 5.6405401 190.142
4.7964602 5.6408801 190.15401
4.9299402 5.6421499 190.196
5.0615602 5.6412802 190.16701
5.1933098 5.6405802 190.144
5.32723 5.64223 190.19901
5.4585299 5.6410899 190.161
5.5904398 5.6406102 190.145
5.7234201 5.6412201 190.16499
5.85567 5.6410899 190.161
5.9871898 5.6402702 190.133
6.1211901 5.6417899 190.18401
6.2550602 5.6431098 190.229
6.3877401 5.6433401 190.23599
6.5211101 5.6441498 190.26401
6.65381 5.6443601 190.271
6.7876601 5.6455102 190.31
6.9238 5.6485 190.41
7.0578599 5.6497002 190.451
7.1919799 5.6509099 190.492
7.3255901 5.65168 190.51801
7.4583998 5.6518202 190.522
7.5950599 5.65482 190.623
7.7295299 5.6561098 190.66701
7.8629498 5.6566 190.68401
7.99826 5.6584201 190.745
8.1320896 5.6591401 190.769
8.2639999 5.6585302 190.74899
8.3990002 5.6600199 190.799
8.5335503 5.66117 190.83701
8.66782 5.6620898 190.869
8.80233 5.6631398 190.90401
8.9358301 5.6635199 190.91701
9.0692902 5.6638699 190.929
9.2040005 5.6649799 190.966
9.3415804 5.6677899 191.061
9.4761 5.6687002 191.091
9.6104898 5.6694999 191.118
9.7450504 5.6703801 191.14799
9.88202 5.6726198 191.224
10.019 5.67483 191.298
10.1582 5.6781802 191.411
10.3029 5.6845102 191.62399
10.448 5.6908798 191.839
10.5962 5.69873 192.104
10.7579 5.7135901 192.605
10.9002 5.7178798 192.74899
11.0376 5.7195902 192.80701
11.1758 5.72159 192.87399
11.3134 5.7233 192.93201
11.4541 5.72647 193.039
11.5975 5.7309399 193.19
11.7409 5.73527 193.336
11.8904 5.7424898 193.57899
12.0418 5.7504601 193.847
12.1885 5.7560101 194.035
12.3308 5.7593598 194.147
12.4736 5.7628999 194.267
12.6206 5.76829 194.448
12.7668 5.77316 194.61301
12.9168 5.7796898 194.83299
13.0675 5.7863498 195.05701
13.2188 5.7931499 195.287
13.3765 5.8025899 195.605
13.542 5.8151698 196.02901
-2.2399399 5.8266001 191.908
-2.1041801 5.8206301 191.71201
-1.96892 5.81529 191.536
-1.83411 5.8106499 191.383
-1.69991 5.8073502 191.274
-1.4327 5.80371 191.15401
-1.2991101 5.8014002 191.078
-1.1661201 5.8015499 191.08299
-1.03282 5.7999501 191.03
-0.76626599 5.7955699 190.886
-0.63324302 5.7943201 190.845
-0.50022697 5.79247 190.784
-0.23440599 5.7877302 190.62801
-0.101653 5.7851 190.541
0.030980101 5.7828598 190.468
0.296168 5.7828498 190.467
0.42870501 5.7820702 190.442
0.56120199 5.78126 190.41499
0.69349599 5.7790699 190.343
0.82590503 5.7783799 190.32001
1.09041 5.7758498 190.237
1.22285 5.7758698 190.237
1.35519 5.7754698 190.224
1.4874099 5.7746601 190.198
1.61931 5.7728901 190.13901
1.7516 5.7726202 190.13
2.01564 5.77068 190.067
2.1478 5.7702498 190.052
2.27913 5.7678099 189.972
2.4105699 5.7658701 189.908
2.5424299 5.76508 189.882
2.80621 5.7638602 189.842
2.9383399 5.7638102 189.84
3.0703399 5.7635102 189.83
3.2028 5.76406 189.84801
3.3354101 5.7648301 189.87399
3.4679599 5.76545 189.894
3.6008101 5.76651 189.929
3.7344999 5.7687702 190.00301
3.86765 5.7700901 190.047
4.0013099 5.7720399 190.11099
4.1344399 5.7731299 190.147
4.2659302 5.7719498 190.108
4.53265 5.7745299 190.19299
4.6654501 5.7750201 190.209
4.9312601 5.7761798 190.24699
5.0625601 5.7748699 190.205
5.1947098 5.77458 190.19501
5.3285198 5.7761102 190.245
5.4602299 5.7753401 190.22
5.5922699 5.77494 190.207
5.7249498 5.7752099 190.216
5.85707 5.77491 190.20599
5.9890199 5.7744699 190.19099
6.1225901 5.7755699 190.22701
6.2567301 5.7771502 190.27901
6.3896499 5.7775698 190.293
6.5233798 5.7786798 190.33
6.6561899 5.7789502 190.339
6.7906799 5.7806401 190.394
6.9271402 5.7839098 190.502
7.0617599 5.7855501 190.556
7.1957102 5.7865901 190.59
7.32903 5.7870998 190.60699
7.4614601 5.7869 190.60001
7.59899 5.7905798 190.722
7.7326102 5.7912202 190.743
7.8659501 5.7916298 190.756
8.0007496 5.7930799 190.804
8.1340303 5.7933998 190.815
8.2661104 5.79287 190.797
8.4012203 5.7944498 190.849
8.5364103 5.79603 190.901
8.6709604 5.7971301 190.938
8.8057899 5.7983899 190.979
8.9398899 5.79914 191.004
9.0740299 5.79989 191.028
9.2091999 5.80126 191.07401
9.3457603 5.8034601 191.146
9.4802198 5.8043199 191.174
9.6147804 5.8052101 191.20399
9.7503901 5.8067002 191.25301
9.8881197 5.8093901 191.341
10.0262 5.8122501 191.436
10.166 5.8159399 191.55701
10.3138 5.8241301 191.827
10.4564 5.8291798 191.993
10.6164 5.8436499 192.47
10.7669 5.8526502 192.76601
10.9063 5.8554602 192.85899
11.0442 5.8573599 192.92101
11.1804 5.8583498 192.95399
11.3203 5.8612599 193.05
11.4644 5.86621 193.213
11.6073 5.8704901 193.354
11.7555 5.8772602 193.577
11.9105 5.88728 193.907
12.0603 5.8945098 194.145
12.2027 5.8980198 194.261
12.3459 5.9018002 194.38499
12.493 5.9073801 194.569
12.64 5.9127898 194.74699
12.7851 5.9172001 194.892
12.9314 5.92206 195.052
13.0806 5.9281602 195.25301
13.2357 5.9367599 195.537
13.3981 5.94842 195.92101
13.555 5.9574399 196.218
-2.37744 5.9700699 192.224
-2.24119 5.9636102 192.01601
-2.1054299 5.9576898 191.825
-1.97014 5.9524202 191.655
-1.7016701 5.9467001 191.47099
-1.56792 5.9449801 191.416
-1.43458 5.9446201 191.40401
-1.30097 5.9429798 191.351
-1.0340101 5.9398599 191.25101
-0.90049899 5.9374099 191.172
-0.76697499 5.93401 191.063
-0.63371402 5.9316502 190.987
-0.50056702 5.9293799 190.914
-0.367493 5.9266601 190.826
-0.23451599 5.9232898 190.718
-0.101703 5.9207001 190.634
0.030999999 5.9193301 190.59
0.163701 5.9201102 190.61501
0.29633 5.9187398 190.571
0.56145298 5.9165301 190.5
0.69380701 5.91429 190.42799
0.826249 5.9134002 190.399
0.95863801 5.9124298 190.368
1.09102 5.9116702 190.343
1.3556499 5.9099898 190.289
1.48791 5.9091301 190.26199
1.61997 5.9077201 190.216
1.7522399 5.9072099 190.2
1.88451 5.9067702 190.186
2.01666 5.9060702 190.16299
2.28018 5.9028301 190.05901
2.4116499 5.9007802 189.993
2.5432899 5.8993402 189.94701
2.67524 5.8987198 189.92599
2.80724 5.8982601 189.912
2.93926 5.8978801 189.899
3.07129 5.8975501 189.88901
3.20362 5.89781 189.897
3.3364 5.8988299 189.92999
3.4694901 5.9003201 189.978
3.7365401 5.9043498 190.108
3.86971 5.9056001 190.14799
4.0032902 5.9073801 190.205
4.1359901 5.9077902 190.21899
4.2676902 5.9067998 190.187
4.4009199 5.9079099 190.222
4.5345502 5.9094901 190.27299
4.6668701 5.9093099 190.267
4.7991199 5.90905 190.259
4.9327402 5.91046 190.30499
5.1964302 5.9090199 190.258
5.3298898 5.91014 190.29401
5.46138 5.90907 190.25999
5.5941601 5.90942 190.271
5.7263098 5.9091101 190.261
5.85817 5.9085102 190.242
5.9906802 5.9085798 190.244
6.1252499 5.9106398 190.31
6.25949 5.9123001 190.364
6.39149 5.9118099 190.34801
6.52566 5.9133101 190.396
6.6589298 5.91396 190.41701
6.7938299 5.9159999 190.483
6.9296699 5.9187698 190.57201
7.0644398 5.9205298 190.629
7.1982098 5.9214001 190.657
7.3319001 5.9221802 190.68201
7.4658799 5.9231601 190.713
7.6021299 5.9258699 190.80099
7.7353802 5.9261999 190.811
7.8695302 5.9271898 190.843
8.0038204 5.9282598 190.877
8.1365404 5.9281402 190.87399
8.2695799 5.9282498 190.877
8.4046202 5.92978 190.92599
8.5399599 5.9314699 190.981
8.8101397 5.93434 191.073
8.9441795 5.93503 191.095
9.0780697 5.9355898 191.114
9.2143602 5.9376798 191.181
9.3491096 5.9387298 191.215
9.4844904 5.9401498 191.25999
9.6189203 5.9409399 191.286
9.7555199 5.9430399 191.353
9.8922796 5.9451699 191.422
10.0322 5.9491 191.549
10.1738 5.9539599 191.705
10.3195 5.96104 191.933
10.4652 5.9679098 192.15401
10.6287 5.9846301 192.69299
10.7739 5.9907999 192.89101
10.9139 5.9939599 192.993
11.0501 5.9949298 193.024
11.1871 5.9963298 193.069
11.3275 5.9995098 193.172
11.475 6.00632 193.39101
11.6181 6.0107298 193.533
11.7695 6.0192599 193.808
11.9279 6.0311298 194.19
12.2196 6.0416799 194.52901
12.3656 6.0468502 194.696
12.5141 6.0531201 194.89799
12.6592 6.05762 195.043
12.9503 6.0667801 195.338
13.096 6.07128 195.483
13.2495 6.0792599 195.74001
13.4108 6.0906601 196.10699
13.5972 6.11306 196.828
-2.1066501 6.09484 191.937
-1.9713 6.0894799 191.76801
-1.83729 6.08777 191.714
-1.70357 6.0868702 191.686
-1.56989 6.0859299 191.65601
-1.43652 6.0861502 191.66299
-1.16904 6.08289 191.56
-1.03514 6.07973 191.461
-0.76772797 6.07305 191.25
-0.63415301 6.0688801 191.119
-0.36771101 6.06318 190.939
-0.23465 6.0595899 190.826
-0.101755 6.05656 190.731
0.0310234 6.0566401 190.73399
0.16378701 6.0560699 190.716
0.296491 6.05478 190.675
0.42910299 6.05299 190.619
0.56168902 6.0517702 190.58
0.69412398 6.0496998 190.515
0.826671 6.0491099 190.496
0.95919502 6.0485401 190.479
1.09172 6.04813 190.466
1.224 6.0465598 190.416
1.35631 6.0454602 190.381
1.62088 6.0435901 190.323
1.7532901 6.0433102 190.314
1.88552 6.0425 190.28799
2.01793 6.0423298 190.283
2.1496899 6.0403199 190.22
2.41271 6.0357699 190.076
2.54439 6.0342398 190.028
2.6763 6.0334001 190.002
2.8087101 6.0337 190.011
2.9405899 6.0328898 189.98599
3.0725501 6.03228 189.967
3.2049699 6.03262 189.97701
3.3375399 6.0331898 189.995
3.4711399 6.0355101 190.06799
3.6047201 6.0376301 190.13499
3.73803 6.0391698 190.183
3.8713601 6.0406199 190.229
4.0047302 6.0420399 190.274
4.1376801 6.0427499 190.29601
4.2694602 6.04177 190.265
4.4025202 6.0426002 190.291
4.5359502 6.04388 190.332
4.6682401 6.0436101 190.323
4.8007202 6.0435901 190.323
4.9338698 6.0444002 190.34801
5.0648098 6.04252 190.289
5.1979399 6.0432901 190.313
5.33111 6.0440698 190.338
5.46279 6.0431499 190.30901
5.5957599 6.0436802 190.325
5.7277899 6.04318 190.31
5.85992 6.04282 190.298
5.9925399 6.0429602 190.30299
6.1278801 6.0457902 190.392
6.26162 6.0469398 190.42799
6.5272698 6.04743 190.44299
6.6619301 6.0493102 190.50301
6.7978501 6.0522499 190.595
6.9334798 6.0548301 190.677
7.0672898 6.0557499 190.705
7.20186 6.0572701 190.75301
7.3361802 6.0585198 190.793
7.4722199 6.0611401 190.875
7.6054001 6.0613799 190.883
7.7382498 6.0613499 190.882
7.8722301 6.0622001 190.909
8.1397104 6.0634499 190.948
8.2733097 6.06394 190.963
8.4089003 6.0658498 191.024
8.5440102 6.0673599 191.071
8.6801796 6.0695701 191.14101
8.8145504 6.0704699 191.16901
8.9489098 6.0713301 191.196
9.0826902 6.0717902 191.211
9.2202702 6.0747299 191.30299
9.3540201 6.0750999 191.315
9.4896603 6.0766802 191.36501
9.6235304 6.0770898 191.37801
9.7601099 6.0791798 191.44299
10.0389 6.0865998 191.677
10.328 6.09971 192.09
10.4851 6.1133499 192.519
10.6375 6.12392 192.85201
10.7811 6.12925 193.02
10.9196 6.1315498 193.093
11.0552 6.1322098 193.11301
11.1933 6.1342201 193.177
11.3354 6.13836 193.30701
11.4844 6.14607 193.55
11.7846 6.1621399 194.056
11.9451 6.1752701 194.46899
12.0922 6.1812801 194.659
12.2396 6.1873002 194.84801
12.3896 6.1944499 195.073
12.5341 6.19875 195.209
12.6797 6.2035098 195.35899
12.8269 6.20895 195.53
13.1139 6.21594 195.75
13.2701 6.2252898 196.045
13.4708 6.2551098 196.98399
13.6951 6.2951598 198.245
-2.24367 6.2379899 192.228
-2.10777 6.2318401 192.039
-1.97311 6.2287598 191.944
-1.8394099 6.2285199 191.936
-1.70568 6.2280798 191.923
-1.3046499 6.2270799 191.892
-1.1704201 6.22367 191.787
-0.90212202 6.2149 191.517
-0.63457799 6.2061501 191.24699
-0.50117898 6.2029099 191.147
-0.234787 6.1961198 190.938
-0.101825 6.1936798 190.86301
0.031040501 6.1929202 190.839
0.163892 6.1928802 190.838
0.296671 6.19134 190.78999
0.42939499 6.18997 190.748
0.56203997 6.1883798 190.69901
0.694471 6.1854901 190.61
0.82711399 6.1851101 190.599
1.09231 6.1841002 190.567
1.22475 6.1830001 190.533
1.35711 6.1817298 190.494
1.48962 6.1813002 190.481
1.62185 6.1798601 190.437
1.7544399 6.1799202 190.439
2.0190899 6.17839 190.392
2.15099 6.1765599 190.33501
2.2825899 6.1741199 190.25999
2.5457001 6.1697898 190.127
2.6776299 6.1687999 190.09599
2.8099799 6.1688199 190.097
2.94205 6.1682701 190.08
3.0743401 6.1682 190.077
3.2065599 6.1679902 190.071
3.3391299 6.1684699 190.086
3.47293 6.1710801 190.166
3.6062901 6.17275 190.218
3.7393601 6.17383 190.25101
3.8724599 6.17488 190.283
4.0061302 6.1767302 190.34
4.1391101 6.1774302 190.362
4.2713199 6.17699 190.34801
4.4046102 6.1780801 190.382
4.53759 6.17869 190.401
4.6696301 6.17802 190.38
4.8023901 6.1782999 190.38901
4.9351001 6.1785102 190.395
5.0667901 6.1774802 190.364
5.1993098 6.1774702 190.36301
5.3326898 6.1784701 190.394
5.4639802 6.1770501 190.35001
5.5969601 6.1775699 190.366
5.7297301 6.1778402 190.375
5.8615699 6.1771002 190.35201
5.9952002 6.1782598 190.388
6.1304302 6.1809702 190.47099
6.26438 6.1823101 190.51199
6.3972301 6.1825299 190.519
6.5310302 6.18363 190.55299
6.6662002 6.1859698 190.625
6.8023901 6.1891398 190.72301
7.0741801 6.1946101 190.89101
7.20818 6.19556 190.92101
7.34237 6.19664 190.95399
7.47612 6.19732 190.97501
7.6090498 6.19731 190.97501
7.7409301 6.1964502 190.948
7.8752398 6.1975398 190.98199
8.0101404 6.1990499 191.028
8.1431904 6.1991 191.03
8.2775202 6.2000999 191.061
8.4125099 6.20156 191.106
8.5486603 6.2038202 191.175
8.6835604 6.2051201 191.215
8.8187399 6.2065701 191.25999
8.95298 6.2073302 191.283
9.0881701 6.2087202 191.326
9.4957104 6.2139301 191.487
9.6289797 6.2139001 191.48599
9.7651701 6.2157402 191.543
9.9029303 6.2185202 191.62801
10.0457 6.2243299 191.80701
10.1901 6.2309899 192.013
10.3373 6.23915 192.26401
10.4985 6.2554302 192.765
10.6447 6.2624898 192.983
10.7878 6.26758 193.14
10.926 6.2697401 193.207
11.0623 6.27074 193.237
11.203 6.2741899 193.34399
11.3491 6.28056 193.53999
11.4949 6.2866402 193.72701
11.641 6.2926998 193.914
11.7995 6.3052802 194.302
11.9605 6.31885 194.72
12.111 6.3266902 194.96201
12.2561 6.3315001 195.11
12.4068 6.3390999 195.34399
12.5575 6.34657 195.57401
12.7032 6.3513298 195.72099
12.8427 6.3529501 195.771
12.9918 6.35923 195.964
13.1529 6.37114 196.33099
13.3585 6.4042201 197.351
13.5412 6.4257202 198.013
13.7302 6.4497499 198.754
-2.79544 6.4096899 193.369
-2.6563001 6.3987899 193.03999
-2.5176301 6.3879199 192.71201
-2.3806901 6.3804498 192.487
-2.2449999 6.3756499 192.342
-2.1093099 6.3702302 192.17799
-1.44058 6.37112 192.205
-1.30598 6.3672299 192.088
-1.03703 6.3580298 191.81
-0.76872402 6.3477001 191.498
-0.50145501 6.33955 191.25301
-0.36814401 6.3365998 191.164
-0.101898 6.3311801 191
0.031059399 6.32969 190.955
0.164009 6.3302898 190.97301
0.29685599 6.3281798 190.91
0.56239498 6.3252001 190.82001
0.69489801 6.3221402 190.72701
0.82758498 6.3214698 190.707
0.96043497 6.3220501 190.72501
1.09316 6.3217602 190.716
1.35812 6.3190799 190.63499
1.49062 6.3181801 190.608
1.62321 6.31779 190.59599
1.75607 6.3184299 190.61501
1.8888299 6.3186402 190.62199
2.02089 6.3166199 190.561
2.2844701 6.31183 190.41701
2.4158299 6.3087001 190.32201
2.5472801 6.3061299 190.244
2.8110499 6.3036299 190.16901
2.9437301 6.3042598 190.188
3.07581 6.3036098 190.16901
3.20784 6.3029199 190.14799
3.34128 6.3049202 190.20799
3.47491 6.3071198 190.27499
3.60813 6.3084698 190.315
3.74103 6.3091502 190.336
3.87411 6.3101001 190.364
4.0079298 6.31213 190.42599
4.5392699 6.3136501 190.47099
4.6709199 6.3123598 190.433
4.80444 6.3136101 190.47
4.9365602 6.3130002 190.452
5.0688701 6.3126602 190.442
5.2017899 6.3130798 190.45399
5.3346 6.3133402 190.46201
5.4661798 6.31217 190.427
5.5989199 6.3123698 190.433
5.7318501 6.3127699 190.44501
5.8642802 6.3126101 190.44
5.9986601 6.3145099 190.49699
6.1332898 6.3165898 190.56
6.26686 6.3175101 190.588
6.4011202 6.3190699 190.63499
6.5363202 6.3214798 190.70799
6.8090701 6.3281898 190.91
6.9464998 6.3323202 191.035
7.0803399 6.3330798 191.058
7.2126198 6.3324499 191.03799
7.3459001 6.3326898 191.04601
7.4795899 6.3332801 191.064
7.61308 6.3336802 191.076
7.7449298 6.3327198 191.047
7.8791599 6.3337202 191.077
8.0135698 6.3348098 191.11
8.1473503 6.3353901 191.127
8.2831697 6.3375001 191.19099
8.4183998 6.3391099 191.24001
8.5543098 6.3411698 191.302
8.6889896 6.3422699 191.33501
8.8245401 6.3439598 191.386
8.9587803 6.3446698 191.407
9.0946398 6.3464999 191.46201
9.2307301 6.3484302 191.521
9.3663797 6.3499999 191.56799
9.5009403 6.3508 191.592
9.63517 6.3513598 191.60899
9.7712097 6.3530798 191.661
9.9092798 6.35607 191.75101
10.052 6.3619299 191.92799
10.1969 6.3689699 192.14
10.3498 6.3807802 192.496
10.507 6.3948798 192.922
10.6537 6.4023199 193.146
10.936 6.4101801 193.384
11.0738 6.4120102 193.439
11.2134 6.4148302 193.524
11.358 6.4204202 193.69299
11.5053 6.4274001 193.903
11.6559 6.4359899 194.162
11.8092 6.4458899 194.461
11.9661 6.45751 194.811
12.272 6.47579 195.36301
12.4319 6.4882798 195.74001
12.5841 6.4965 195.98801
12.7268 6.4997201 196.08501
12.88 6.5081501 196.339
13.0507 6.5251398 196.85201
13.2266 6.5443902 197.43201
13.3998 6.5619102 197.961
13.5619 6.5736399 198.315
13.7333 6.5896602 198.798
-2.11134 6.5103598 192.364
-1.9779201 6.5119801 192.412
-1.84431 6.5131798 192.44701
-1.71092 6.51542 192.513
-1.57637 6.5131898 192.44701
-1.44177 6.5103598 192.364
-1.30687 6.5054402 192.218
-1.17207 6.50002 192.058
-1.03767 6.4955902 191.927
-0.903238 6.4897199 191.754
-0.76916498 6.4847999 191.608
-0.63535398 6.4804902 191.481
-0.36835799 6.4735198 191.27499
-0.235103 6.4708099 191.19501
0.16412701 6.4679599 191.11099
0.29706299 6.4656601 191.043
0.43000901 6.46492 191.021
0.562837 6.4631801 190.97
0.82824898 6.4594798 190.86
0.96099001 6.4586201 190.83501
1.09373 6.4579701 190.81599
1.22641 6.45717 190.79201
1.35923 6.45716 190.79201
1.49175 6.4558501 190.75301
1.62468 6.4563999 190.769
1.758 6.4583001 190.825
1.8908401 6.4582701 190.825
2.02281 6.4555101 190.743
2.1545601 6.4524002 190.651
2.28597 6.4487 190.54201
2.4177799 6.4464798 190.476
2.54918 6.4434299 190.386
2.68115 6.44206 190.34599
2.8129301 6.4403901 190.29601
2.9453599 6.4403 190.293
3.2093501 6.4383798 190.237
3.34338 6.4414501 190.328
3.47644 6.4425101 190.35899
3.60993 6.4442401 190.41
3.7423699 6.4440498 190.40401
3.87589 6.4456401 190.451
4.0096598 6.4475498 190.508
4.1427999 6.44837 190.532
4.2754898 6.4484501 190.534
4.4086499 6.4492002 190.556
4.5409098 6.4486299 190.53999
4.8065901 6.4491701 190.556
4.93822 6.4478202 190.51601
5.0706401 6.4475598 190.508
5.2032499 6.4475498 190.508
5.3365598 6.44837 190.532
5.4679499 6.4468999 190.489
5.6013298 6.4477901 190.515
5.73423 6.4481001 190.524
5.8667302 6.4479499 190.52
6.0016599 6.4504199 190.593
6.1363902 6.45257 190.65601
6.26963 6.4531102 190.672
6.4056201 6.4563799 190.769
6.5427198 6.4606299 190.894
6.68082 6.4656701 191.043
6.95153 6.4700599 191.173
7.0832901 6.4688501 191.13699
7.21592 6.4684601 191.12601
7.3492599 6.46872 191.133
7.4829702 6.4692798 191.14999
7.6156301 6.4689398 191.14
7.7479901 6.4683499 191.12199
7.88309 6.4700298 191.172
8.0170202 6.4707098 191.192
8.1511497 6.47153 191.216
8.2885704 6.4748902 191.31599
8.4238701 6.4765201 191.364
8.5593596 6.47824 191.41499
8.6941004 6.4793501 191.44701
8.8300304 6.4812999 191.505
8.9654703 6.48283 191.55
9.1016302 6.4848399 191.61
9.2356195 6.48526 191.62199
9.3713503 6.4868698 191.67
9.5059795 6.48769 191.694
9.64077 6.4885898 191.72
9.7760696 6.48981 191.756
9.9156904 6.4938202 191.875
10.0593 6.50034 192.06799
10.2022 6.5061998 192.241
10.365 6.5244098 192.77901
10.5149 6.5341702 193.067
10.6615 6.5416398 193.28799
10.8042 6.5465698 193.43401
10.9447 6.5500798 193.537
11.0839 6.5527401 193.616
11.366 6.5599699 193.83
11.5148 6.5678401 194.062
11.6678 6.57793 194.36
11.8204 6.5875902 194.646
11.9742 6.5976701 194.94299
12.1263 6.6065798 195.207
12.2804 6.6163802 195.496
12.5979 6.6402898 196.203
12.7575 6.6522698 196.55701
12.9171 6.66401 196.90401
13.0863 6.6804299 197.38901
13.2483 6.6928401 197.755
13.4055 6.7026401 198.045
13.5633 6.7125001 198.336
13.7388 6.7308102 198.87801
-2.2486999 6.65453 192.659
-2.11481 6.6552801 192.67999
-1.98125 6.6571898 192.735
-1.8468699 6.6564598 192.714
-1.7126499 6.65623 192.70799
-1.44253 6.6478801 192.466
-1.30764 6.64328 192.33299
-1.17267 6.6371398 192.155
-1.03825 6.6329899 192.035
-0.90363199 6.6261702 191.83701
-0.76961601 6.6221399 191.72099
-0.63573903 6.6178598 191.597
-0.502123 6.6147699 191.507
-0.36869401 6.6127801 191.45
-0.235278 6.6089001 191.338
-0.102048 6.6069398 191.28101
0.0311205 6.6086798 191.33099
0.164298 6.6079502 191.31
0.29743001 6.6068802 191.27901
0.563366 6.6023998 191.149
0.69610697 6.5992899 191.05901
0.82888401 6.5974698 191.006
0.96185601 6.5974798 191.007
1.22727 6.5946798 190.92599
1.3601 6.5942602 190.914
1.49282 6.59343 190.89
1.75977 6.5978298 191.017
1.89244 6.5967798 190.987
2.0252099 6.59618 190.96899
2.2885499 6.58883 190.756
2.41961 6.5841098 190.62
2.6829901 6.5791702 190.47701
2.81477 6.57724 190.42101
2.94642 6.5752001 190.362
3.07883 6.5749798 190.355
3.2116001 6.57549 190.37
3.3450401 6.5772901 190.422
3.4784501 6.5788999 190.46899
3.6113601 6.5794601 190.485
3.7441499 6.5797901 190.495
3.87778 6.5815201 190.545
4.01191 6.58395 190.61501
4.1455002 6.5853601 190.65601
4.2780399 6.5850801 190.64799
4.4106998 6.58498 190.645
4.5433698 6.5849199 190.64301
4.6752801 6.5837798 190.61
4.8084202 6.5843902 190.62801
4.9405799 6.5836701 190.60699
5.0727701 6.5830102 190.588
5.4695601 6.5815201 190.545
5.6034002 6.5829201 190.58501
5.7366099 6.58354 190.603
5.8694401 6.5836902 190.608
6.0054698 6.5873599 190.714
6.1392102 6.5883999 190.744
6.2729402 6.5893898 190.77299
6.4112701 6.5950699 190.937
6.55164 6.6025801 191.15401
6.6872301 6.6050701 191.22701
6.8221402 6.6068001 191.27699
6.9545002 6.60604 191.255
7.0870099 6.6054502 191.237
7.2194099 6.6047802 191.218
7.4857502 6.6048698 191.22099
7.7508898 6.60394 191.194
7.88761 6.6069798 191.282
8.1567202 6.60923 191.347
8.2910204 6.6100998 191.37199
8.4296103 6.6143198 191.494
8.5634499 6.6147199 191.506
8.7012196 6.6181102 191.604
8.8387098 6.6211901 191.69299
9.3777199 6.6248698 191.8
9.5120897 6.6254702 191.817
9.6469202 6.6263499 191.843
9.7837 6.62854 191.90601
9.9221802 6.6318002 192.00101
10.0666 6.6388798 192.205
10.2064 6.6428099 192.319
10.3744 6.6647 192.953
10.5259 6.6756101 193.269
10.671 6.6822 193.46001
10.9544 6.6908002 193.709
11.0948 6.6941199 193.80499
11.233 6.6961198 193.86301
11.3786 6.7023702 194.043
11.5284 6.7109199 194.291
11.6779 6.7191601 194.53
11.8307 6.7290401 194.81599
11.9829 6.7383599 195.08501
12.1365 6.74822 195.371
12.2884 6.7569599 195.62399
12.458 6.7751398 196.14999
12.6272 6.7927299 196.659
12.7775 6.79986 196.866
12.9318 6.8089199 197.12801
13.0956 6.8227801 197.53
13.2516 6.8323002 197.80499
13.4054 6.8405399 198.04401
13.5651 6.8515501 198.362
13.7338 6.8668299 198.80499
-2.3872499 6.8013601 193.017
-2.25279 6.8010802 193.009
-2.1180999 6.8000398 192.98
-1.7138 6.7950001 192.83701
-1.57837 6.7898998 192.692
-1.30813 6.7797899 192.405
-1.1731499 6.7737699 192.23399
-1.03853 6.76859 192.08701
-0.90399599 6.7625098 191.91499
-0.77000701 6.75911 191.81799
-0.502469 6.75281 191.63901
-0.368884 6.7495999 191.548
-0.23546299 6.7474599 191.487
-0.102171 6.74827 191.50999
0.0311614 6.7508101 191.58299
0.43096 6.7459102 191.444
0.56396103 6.74265 191.351
0.829629 6.7365599 191.17799
0.96254802 6.7353702 191.144
1.0954601 6.7344198 191.117
1.22846 6.73417 191.11
1.36122 6.73276 191.07001
1.49421 6.7326598 191.06799
1.62866 6.7386198 191.237
1.76221 6.7402301 191.282
1.89454 6.7372599 191.198
2.0276999 6.7374701 191.20399
2.29109 6.7291698 190.96899
2.42186 6.7231398 190.797
2.55266 6.7178001 190.646
2.68455 6.7157402 190.58701
2.9484601 6.71244 190.494
3.0803001 6.7107501 190.446
3.2124701 6.7099099 190.422
3.3466201 6.7131 190.51199
3.4798999 6.7143602 190.548
3.6134901 6.7160902 190.597
3.74682 6.7172499 190.63
4.5468898 6.7229199 190.791
4.6783199 6.7209201 190.73399
4.8104701 6.7200298 190.709
4.9427199 6.7193298 190.689
5.0746298 6.7182298 190.658
5.20751 6.71842 190.664
