# .PCD v0.7 - Point Cloud Data file format
VERSION 0.7
FIELDS x y z
SIZE 4 4 4
TYPE F F F
COUNT 1 1 1
WIDTH 1663
HEIGHT 1
VIEWPOINT 0 0 0 1 0 0 0
POINTS 1663
DATA ascii
15.4288 -10.3258 194.015
15.596 -10.3471 194.41499
15.7539 -10.3619 194.694
15.9001 -10.3689 194.825
16.0448 -10.3748 194.935
16.192301 -10.3823 195.077
16.341999 -10.3912 195.243
16.491699 -10.3999 195.407
16.649 -10.4132 195.657
16.8123 -10.43 195.97301
16.9764 -10.447 196.29201
-8.6520205 -10.0793 191.895
-8.5141802 -10.0743 191.799
-8.3760595 -10.0688 191.694
-8.23771 -10.0628 191.58
-8.1004105 -10.0579 191.487
-7.96279 -10.0525 191.384
-7.82691 -10.0491 191.319
-7.6912198 -10.0458 191.257
-7.5557499 -10.0427 191.198
-7.4182301 -10.0367 191.084
-7.2811499 -10.0311 190.978
-7.1419401 -10.0224 190.81
-6.8631802 -10.0033 190.44701
-6.7228699 -9.9917898 190.228
-6.44557 -9.9725304 189.862
-6.3076801 -9.9634895 189.69
-6.1711798 -9.9563198 189.55299
-6.0355601 -9.9502802 189.438
-5.9012799 -9.9462404 189.36099
-5.7670298 -9.9420605 189.282
-5.63307 -9.93818 189.20799
-5.4981198 -9.9323502 189.097
-5.3638401 -9.9274502 189.004
-5.2298298 -9.9228497 188.916
-5.0960999 -9.91852 188.83299
-4.9635801 -9.9164104 188.793
-4.8315301 -9.9151297 188.769
-4.69907 -9.91292 188.72701
-4.5666599 -9.9106903 188.68401
-4.4337802 -9.9072704 188.619
-4.3011298 -9.9041901 188.561
-4.1686802 -9.90137 188.507
-4.0367098 -9.89956 188.472
-3.90453 -9.8970804 188.425
-3.7727399 -9.8954601 188.395
-3.6403799 -9.89219 188.332
-3.50769 -9.8877296 188.24699
-3.37517 -9.88342 188.16499
-3.2430699 -9.8800201 188.101
-3.11113 -9.8768797 188.041
-2.97943 -9.8742599 187.991
-2.8478799 -9.8718796 187.946
-2.7165401 -9.8700705 187.911
-2.58513 -9.8677998 187.868
-2.3231101 -9.8659 187.832
-2.1920099 -9.8643303 187.802
-2.0613599 -9.8647699 187.81
-1.93036 -9.8634396 187.785
-1.79925 -9.8613501 187.745
-1.6688401 -9.86304 187.77699
-1.53794 -9.8619499 187.757
-1.40702 -9.8604298 187.728
-1.27644 -9.8612404 187.743
-1.1458499 -9.8621502 187.75999
-1.01487 -9.8595505 187.711
-0.88416499 -9.85923 187.705
-0.75336099 -9.8574896 187.67101
-0.62256598 -9.8551598 187.627
-0.491804 -9.8522501 187.57201
-0.36117101 -9.8507404 187.543
-0.230543 -9.8477697 187.48599
-0.0999818 -9.8436403 187.408
0.0304706 -9.8398399 187.33501
0.16082899 -9.8364496 187.271
0.29110301 -9.83325 187.21001
0.42129901 -9.8301897 187.15199
0.55129099 -9.8249598 187.052
0.681225 -9.8208799 186.97501
0.81109798 -9.81738 186.908
0.94094998 -9.81462 186.855
1.07081 -9.8125801 186.817
1.20068 -9.8110704 186.78799
1.3305399 -9.8098602 186.765
1.46012 -9.8069 186.70799
1.58977 -9.8048801 186.67
1.7197599 -9.8051004 186.674
1.84929 -9.8028698 186.632
1.97891 -9.8013601 186.603
2.10882 -9.8013897 186.604
2.23838 -9.79986 186.57401
2.3675101 -9.7967796 186.51601
2.4971099 -9.7958202 186.498
2.62711 -9.7964497 186.509
2.75647 -9.7947502 186.47701
2.8859799 -9.7936897 186.457
3.01665 -9.7965202 186.511
3.1465299 -9.7966604 186.513
3.27669 -9.7976103 186.532
3.40781 -9.8012505 186.601
3.5388801 -9.8044701 186.662
3.66978 -9.8070202 186.711
3.8013301 -9.8110905 186.78799
3.93226 -9.8133202 186.83099
4.06394 -9.8172302 186.905
4.1954498 -9.8205004 186.967
4.3257799 -9.8208904 186.97501
4.4556899 -9.8203402 186.964
4.5852799 -9.8191099 186.94099
4.7141199 -9.8164196 186.89
4.8441501 -9.8162699 186.88699
4.9734802 -9.8147402 186.858
5.1022902 -9.8122997 186.811
5.2314401 -9.8106098 186.77901
5.3610702 -9.8098803 186.765
5.4895301 -9.8071098 186.71201
5.61906 -9.8063097 186.69701
5.7488699 -9.8060503 186.692
5.87708 -9.8031301 186.63699
6.0050502 -9.7999296 186.576
6.1367202 -9.8027697 186.63
6.2681799 -9.8051796 186.67599
6.3993001 -9.8069601 186.71001
6.5300999 -9.8081999 186.733
6.66434 -9.8144503 186.85201
6.7953701 -9.8158302 186.87801
6.9265299 -9.8173399 186.907
7.0578198 -9.8189697 186.938
7.1935401 -9.8266001 187.08299
7.3319201 -9.8375301 187.29201
7.4683599 -9.8455 187.44299
7.6036 -9.8516703 187.561
7.7367301 -9.8549299 187.623
7.87186 -9.8605804 187.73
8.0048704 -9.8634396 187.785
8.1363096 -9.8642998 187.80099
8.2696505 -9.8674097 187.86
8.4013205 -9.8684597 187.88
8.5337896 -9.8704004 187.91701
8.6662197 -9.8722296 187.952
8.7988596 -9.8742504 187.991
8.9314003 -9.87609 188.026
9.0648298 -9.8788605 188.078
9.1980696 -9.88134 188.12601
9.3324003 -9.8849001 188.19299
9.4668798 -9.8885298 188.26199
9.6016502 -9.8923502 188.33501
9.7358103 -9.8954496 188.394
9.8704796 -9.8989801 188.461
10.0033 -9.9005499 188.491
10.1404 -9.9063797 188.60201
10.2733 -9.9078903 188.631
10.4077 -9.9107704 188.686
10.5424 -9.9139795 188.74699
10.6751 -9.9151802 188.77
10.8086 -9.9171305 188.80701
10.9449 -9.9214497 188.88901
11.0787 -9.9235401 188.929
11.2153 -9.92801 189.01401
11.3543 -9.9344997 189.138
11.4929 -9.9405804 189.25301
11.6346 -9.9490204 189.414
11.7729 -9.9545002 189.51801
11.9082 -9.9572802 189.571
12.044 -9.9604702 189.632
12.1791 -9.9629898 189.67999
12.3165 -9.96735 189.763
12.4527 -9.9706097 189.825
12.5901 -9.9748001 189.905
12.7306 -9.9813099 190.02901
12.8753 -9.9909201 190.21201
13.0194 -9.9998598 190.382
13.166 -10.0106 190.586
13.3106 -10.0196 190.757
13.451 -10.0253 190.866
13.5926 -10.0317 190.98801
13.7316 -10.0361 191.07201
13.868 -10.0386 191.119
14.0059 -10.042 191.18401
14.1484 -10.0487 191.312
14.2955 -10.0585 191.498
14.443 -10.0684 191.687
14.5982 -10.0834 191.97301
14.7672 -10.1076 192.433
14.9495 -10.1404 193.058
15.1125 -10.1596 193.423
15.2666 -10.1726 193.67101
15.4248 -10.188 193.964
15.5944 -10.2107 194.395
15.7544 -10.2267 194.7
15.9027 -10.2349 194.856
16.0488 -10.2415 194.983
16.1952 -10.2483 195.112
16.342501 -10.2555 195.24899
16.490499 -10.263 195.392
16.6474 -10.2759 195.638
16.811001 -10.2927 195.95599
16.9708 -10.3069 196.22701
-8.9273005 -9.9547195 192.07001
-8.7883196 -9.94876 191.955
-8.6498404 -9.9431801 191.847
-8.5115995 -9.9377098 191.741
-8.3736801 -9.9324398 191.64
-8.2360897 -9.9274101 191.543
-8.09867 -9.9224195 191.446
-7.9615202 -9.9175797 191.353
-7.8257699 -9.91436 191.291
-7.6898198 -9.91078 191.222
-7.5542302 -9.9075499 191.159
-7.41575 -9.9003296 191.02
-7.1394401 -9.8859901 190.743
-6.9997902 -9.8763103 190.55701
-6.8592601 -9.8649797 190.338
-6.7197099 -9.85464 190.13901
-6.5806198 -9.8445902 189.94501
-6.4425702 -9.8357 189.77299
-6.3059101 -9.8286104 189.63699
-6.1693301 -9.8213501 189.496
-6.0341802 -9.8161001 189.395
-5.9001498 -9.8124599 189.325
-5.7662301 -9.8088503 189.255
-5.63241 -9.8052502 189.186
-5.4976101 -9.7997198 189.07899
-5.3632998 -9.7948303 188.985
-5.2291098 -9.7899103 188.89
-5.0956101 -9.7860603 188.815
-4.9635401 -9.7848301 188.79201
-4.83145 -9.7834797 188.76601
-4.69906 -9.7814398 188.726
-4.5665002 -9.7789097 188.67799
-4.4335098 -9.7752895 188.608
-4.3010402 -9.7726402 188.55701
-4.1686702 -9.77005 188.506
-4.0364599 -9.7676802 188.461
-3.9040999 -9.76476 188.40401
-3.77209 -9.7625599 188.362
-3.6396101 -9.7589502 188.29201
-3.5069201 -9.7544498 188.20599
-3.3745201 -9.7504702 188.129
-3.2425001 -9.7472897 188.067
-3.11063 -9.7443304 188.00999
-2.97892 -9.7416401 187.95799
-2.8471999 -9.7386398 187.901
-2.7158401 -9.7366695 187.862
-2.4540401 -9.7357197 187.84399
-2.3227201 -9.7334204 187.8
-2.1916101 -9.73176 187.76801
-2.06093 -9.7319298 187.771
-1.93006 -9.7311296 187.756
-1.7989 -9.7286997 187.709
-1.6685801 -9.7307796 187.74899
-1.53781 -9.7303305 187.74001
-1.40688 -9.7287302 187.709
-1.27632 -9.7295799 187.726
-1.14577 -9.7307396 187.748
-1.01478 -9.7279196 187.694
-0.88411301 -9.7279196 187.694
-0.75332397 -9.7262802 187.662
-0.62255001 -9.7242203 187.62199
-0.49176899 -9.7209101 187.558
-0.36116001 -9.7198296 187.53799
-0.230527 -9.7165203 187.474
-0.099971399 -9.7121 187.388
0.0304676 -9.7083902 187.317
0.16080099 -9.7042904 187.23801
0.29103899 -9.7006998 187.16901
0.42119399 -9.6974096 187.105
0.55118001 -9.6927204 187.015
0.68107498 -9.6885099 186.933
0.81092501 -9.6851196 186.868
0.94076502 -9.68256 186.819
1.07059 -9.6805296 186.77901
1.20047 -9.6792803 186.755
1.33038 -9.6786098 186.742
1.45992 -9.6755104 186.683
1.58957 -9.6736202 186.646
1.71953 -9.67377 186.649
1.84909 -9.6718397 186.612
1.97868 -9.67029 186.582
2.1084599 -9.6697702 186.57201
2.2384 -9.6700001 186.576
2.3674099 -9.66644 186.507
2.49699 -9.6654301 186.48801
2.6270599 -9.6663504 186.506
2.75635 -9.6644497 186.46899
2.88555 -9.6623898 186.429
3.0161099 -9.6648798 186.47701
3.1461201 -9.6654902 186.489
3.27636 -9.6666899 186.51199
3.40729 -9.6697903 186.57201
3.5381801 -9.6725397 186.625
3.6684699 -9.6735296 186.644
3.80037 -9.6785297 186.741
3.9310901 -9.6803102 186.77499
4.0628099 -9.6843395 186.853
4.1946902 -9.6885004 186.933
4.32515 -9.68925 186.948
4.4554 -9.6894703 186.952
4.5852098 -9.6887598 186.938
4.7143102 -9.6866302 186.897
4.8445301 -9.6868496 186.901
4.9739199 -9.6854601 186.87399
5.1030102 -9.6835403 186.83701
5.2322001 -9.6819201 186.806
5.3618798 -9.6812696 186.79401
5.4900298 -9.6779404 186.729
5.6198502 -9.67764 186.72301
5.74962 -9.6772804 186.717
6.0068898 -9.6729298 186.633
6.1384201 -9.6754599 186.68201
6.2693 -9.6768904 186.709
6.53052 -9.6787596 186.745
6.6644201 -9.6844301 186.855
6.79564 -9.6860504 186.886
6.9265199 -9.6871405 186.907
7.0575099 -9.6883402 186.92999
7.1919198 -9.6941004 187.041
7.3284602 -9.7024899 187.203
7.4651499 -9.7107697 187.36301
7.6005602 -9.7171402 187.48599
7.8694701 -9.7268696 187.673
8.00278 -9.7300997 187.73599
8.1344204 -9.7312403 187.758
8.2681303 -9.7347698 187.826
8.4001198 -9.7362003 187.853
8.5328503 -9.7384396 187.897
8.6649399 -9.7398796 187.924
8.7970695 -9.7413197 187.952
8.9296398 -9.7432098 187.989
9.06359 -9.74652 188.05299
9.1977997 -9.75002 188.12
9.3314896 -9.7528801 188.175
9.4653902 -9.7558603 188.233
9.5998402 -9.7593298 188.3
9.73419 -9.7626104 188.36301
9.8696404 -9.76688 188.44501
10.0032 -9.7692003 188.49001
10.1401 -9.7746401 188.595
10.2729 -9.7761097 188.62399
10.4071 -9.77882 188.67599
10.5418 -9.7819099 188.735
10.6747 -9.7833004 188.76199
10.8085 -9.78549 188.804
10.9447 -9.7897196 188.886
11.0786 -9.7918997 188.92799
11.2145 -9.7957296 189.002
11.3524 -9.8011303 189.106
11.491 -9.8071003 189.22099
11.6319 -9.8148298 189.371
11.7707 -9.8206701 189.483
11.907 -9.8242397 189.552
12.0435 -9.8279896 189.62399
12.1779 -9.8299198 189.662
12.3149 -9.8338499 189.73801
12.4513 -9.8372602 189.80299
12.5889 -9.8415298 189.886
12.7287 -9.8474798 190.00101
12.8734 -9.8569803 190.18401
13.0175 -9.8658504 190.355
13.1636 -9.8760004 190.55099
13.4511 -9.8923397 190.866
13.5939 -9.8995895 191.006
13.7334 -9.9042597 191.09599
13.8693 -9.9063101 191.136
14.0062 -9.9090405 191.188
14.1483 -9.9153605 191.31
14.2957 -9.9252396 191.50101
14.4435 -9.9351702 191.692
14.5984 -9.9498596 191.976
14.7623 -9.9702501 192.369
14.9425 -10.0012 192.967
15.1064 -10.0208 193.345
15.2632 -10.0355 193.62801
15.4217 -10.0509 193.92599
15.592 -10.0737 194.366
15.7536 -10.0905 194.69
15.9037 -10.0998 194.868
16.052099 -10.1078 195.024
16.1982 -10.1143 195.14799
16.343 -10.1198 195.254
16.489901 -10.1266 195.38499
16.6464 -10.139 195.625
16.809 -10.155 195.93401
16.967699 -10.1683 196.19099
-8.9254704 -9.8189201 192.03
-8.7864904 -9.8130102 191.91499
-8.6480398 -9.8075104 191.80701
-8.5095701 -9.8018103 191.696
-8.3716803 -9.7966204 191.59399
-8.2340603 -9.7915697 191.495
-8.0977802 -9.7879896 191.425
-7.9604301 -9.7829599 191.327
-7.82441 -9.7794304 191.258
-7.55161 -9.7709999 191.093
-7.4137502 -9.7646399 190.96899
-7.2757401 -9.7578497 190.836
-7.1366801 -9.7493696 190.67
-6.9962702 -9.7386703 190.461
-6.8556099 -9.7272301 190.237
-6.71702 -9.7183199 190.063
-6.5785599 -9.7092505 189.88499
-6.30475 -9.6947498 189.60201
-6.1683402 -9.6878004 189.466
-6.0330701 -9.6823902 189.36
-5.8990402 -9.6787701 189.289
-5.7655401 -9.6758804 189.233
-5.6318498 -9.6725197 189.16701
-5.4970698 -9.6670904 189.061
-5.3629799 -9.6626101 188.97301
-5.2288599 -9.6578798 188.881
-5.0950699 -9.6535196 188.795
-4.9633098 -9.6528797 188.783
-4.8311601 -9.6514301 188.755
-4.6987901 -9.6494398 188.716
-4.5662699 -9.6470203 188.668
-4.4333301 -9.6435299 188.60001
-4.3007498 -9.6406603 188.54401
-4.1683698 -9.6380596 188.493
-4.0358701 -9.6350002 188.433
-3.90346 -9.6319704 188.37399
-3.77088 -9.6282797 188.302
-3.63851 -9.6248903 188.235
-3.50581 -9.6203203 188.146
-3.3736601 -9.6169996 188.08099
-3.2416501 -9.6138 188.019
-3.10988 -9.6110601 187.965
-2.9784501 -9.6091995 187.929
-2.8468699 -9.6066599 187.879
-2.7154801 -9.6045399 187.838
-2.5843101 -9.6030502 187.808
-2.4536901 -9.6035004 187.817
-2.3224499 -9.60151 187.778
-2.1914699 -9.6003399 187.755
-2.0606699 -9.5999098 187.74699
-1.92998 -9.5999699 187.748
-1.79875 -9.5971699 187.69299
-1.66837 -9.5987501 187.724
-1.53767 -9.5987101 187.72301
-1.40668 -9.5966101 187.68201
-1.27614 -9.5974903 187.7
-1.1456 -9.5985603 187.72099
-1.01467 -9.59618 187.674
-0.88399601 -9.5959101 187.66901
-0.753263 -9.5948 187.647
-0.622486 -9.5925398 187.603
-0.49170801 -9.5890799 187.535
-0.361114 -9.5879698 187.513
-0.230508 -9.5851297 187.45799
-0.099964797 -9.5809402 187.37601
0.030464999 -9.5771103 187.30099
0.16079099 -9.5733099 187.22701
0.29101399 -9.56952 187.153
0.551121 -9.56143 186.994
0.681005 -9.5573397 186.914
0.81079698 -9.5534601 186.839
0.94062799 -9.5510502 186.791
1.07041 -9.5488195 186.748
1.20028 -9.5476999 186.726
1.33022 -9.54737 186.71899
1.4598401 -9.5450001 186.673
1.58944 -9.5428495 186.631
1.71938 -9.5429602 186.633
1.8489799 -9.5412598 186.60001
1.97849 -9.5394096 186.564
2.1082699 -9.5389299 186.554
2.2383299 -9.5397596 186.571
2.3673501 -9.5362902 186.50301
2.49702 -9.5356503 186.49001
2.6269901 -9.53617 186.5
2.7562101 -9.53407 186.459
2.88538 -9.53197 186.418
3.0157001 -9.5336905 186.452
3.14605 -9.5353498 186.48399
3.2760601 -9.5359201 186.495
3.40677 -9.5383797 186.54401
3.53722 -9.5399599 186.575
3.66734 -9.5405703 186.586
3.7990999 -9.54527 186.67799
3.9300001 -9.5475597 186.72301
4.0617399 -9.5516796 186.804
4.1936002 -9.55581 186.88499
4.3242202 -9.5569801 186.907
4.4547 -9.5577602 186.923
4.58494 -9.5579901 186.927
4.7144699 -9.5567799 186.903
4.8450198 -9.5576401 186.92
4.9742899 -9.5559998 186.888
5.1037202 -9.55474 186.864
5.2326498 -9.5526304 186.82201
5.3624601 -9.5521898 186.814
5.4910302 -9.5496101 186.763
5.6212101 -9.5498896 186.769
5.7507601 -9.5491199 186.754
5.87956 -9.5471497 186.715
6.1398902 -9.5477104 186.726
6.2704401 -9.5485802 186.743
6.4013 -9.54986 186.76801
6.5310602 -9.5494804 186.761
6.6645098 -9.5544004 186.85699
6.7955399 -9.5557404 186.883
6.9268098 -9.5573502 186.91499
7.0571198 -9.5576096 186.92
7.1909199 -9.5625 187.015
7.3256202 -9.5683899 187.13
7.4622202 -9.5764999 187.289
7.59727 -9.5823898 187.40401
7.7309599 -9.5864 187.483
7.8668098 -9.5929003 187.61
8.0003996 -9.5964899 187.67999
8.1323099 -9.59797 187.709
8.2659302 -9.6013899 187.776
8.3977699 -9.6026697 187.80099
8.5315104 -9.6060495 187.867
8.6636105 -9.6075096 187.896
8.7960196 -9.6092701 187.92999
8.9284897 -9.6110296 187.964
9.0620298 -9.6138802 188.02
9.1965799 -9.6177101 188.095
9.3299398 -9.6202002 188.144
9.4637604 -9.6230898 188.2
9.5975399 -9.6258602 188.255
9.73209 -9.6293297 188.32201
9.8678904 -9.6339197 188.412
10.0026 -9.6373396 188.479
10.1393 -9.6425896 188.582
10.2725 -9.64431 188.61501
10.4062 -9.6466103 188.66
10.5405 -9.6493301 188.713
10.6736 -9.6508598 188.743
10.8078 -9.6533604 188.79201
11.0781 -9.6598701 188.92
11.2134 -9.6630898 188.983
11.3507 -9.6679697 189.078
11.4897 -9.6742401 189.201
11.6297 -9.6811199 189.33501
11.7684 -9.6868 189.446
11.9056 -9.6910696 189.53
12.0424 -9.6950197 189.60699
12.1769 -9.6970396 189.647
12.3139 -9.7009497 189.72301
12.4503 -9.7042999 189.789
12.5883 -9.7088299 189.877
12.7281 -9.7146502 189.991
12.872 -9.7234097 190.162
13.0163 -9.7323303 190.33701
13.1615 -9.7417498 190.521
13.3059 -9.7503901 190.69
13.4506 -9.7590704 190.86
13.5938 -9.76647 191.004
13.734 -9.7716398 191.105
13.87 -9.7737103 191.146
14.0065 -9.7760801 191.192
14.1487 -9.7823896 191.31599
14.2955 -9.7916899 191.498
14.4435 -9.80165 191.692
14.5983 -9.8160696 191.974
14.7584 -9.8336802 192.319
14.9364 -9.8627701 192.888
15.1017 -9.8831301 193.286
15.2601 -9.8985796 193.588
15.42 -9.9147501 193.90401
15.588 -9.9357595 194.315
15.7518 -9.9537802 194.668
15.904 -9.9642496 194.87199
16.054399 -9.9734001 195.05099
16.201 -9.9800701 195.18201
16.3451 -9.9850798 195.28
16.4916 -9.9914999 195.405
16.645901 -10.0024 195.619
16.806 -10.0167 195.899
16.965799 -10.0306 196.16901
-8.9247303 -9.68437 192.01401
-8.78543 -9.6781702 191.89101
-8.6468697 -9.6725998 191.78101
-8.5088396 -9.6674604 191.679
-8.37113 -9.6625404 191.582
-8.2333698 -9.6573801 191.479
-8.0967102 -9.6533804 191.39999
-7.9590502 -9.6480198 191.29401
-7.8229499 -9.6444197 191.222
-7.6872501 -9.6411695 191.158
-7.5494399 -9.6351404 191.03799
-7.4117599 -9.6290398 190.91701
-7.2723598 -9.62045 190.74699
-6.9918699 -9.5999699 190.341
-6.8522401 -9.5900097 190.14301
-6.5763898 -9.5738401 189.823
-6.4397001 -9.5670795 189.689
-6.30374 -9.5611496 189.571
-6.1677299 -9.5548897 189.44701
-6.0322299 -9.5491695 189.334
-5.8982501 -9.54564 189.26401
-5.7645602 -9.54245 189.201
-5.6312399 -9.5397301 189.147
-5.49651 -9.53442 189.041
-5.3627 -9.5305004 188.964
-5.2287202 -9.5260601 188.875
-5.0948701 -9.5216503 188.78799
-4.9630299 -9.5208397 188.772
-4.8305998 -9.5188599 188.733
-4.69836 -9.5171099 188.698
-4.5658598 -9.5147495 188.651
-4.4328499 -9.5111399 188.58
-4.29987 -9.5073996 188.505
-4.1676302 -9.5050898 188.46001
-4.03513 -9.5020199 188.399
-3.90274 -9.4990101 188.339
-3.76981 -9.4944296 188.248
-3.63746 -9.4910297 188.181
-3.50493 -9.4868803 188.099
-3.3728199 -9.4836197 188.034
-3.2412601 -9.4816904 187.996
-3.1092999 -9.4783802 187.92999
-2.9778199 -9.4763002 187.88901
-2.8464401 -9.4743605 187.85001
-2.58425 -9.4720001 187.804
-2.4534099 -9.4716101 187.79601
-2.3222799 -9.4699898 187.76401
-2.1913199 -9.4689503 187.743
-2.06054 -9.4685297 187.735
-1.9298 -9.4683399 187.731
-1.79866 -9.46597 187.68401
-1.66826 -9.4674301 187.713
-1.53759 -9.4674397 187.713
-1.40662 -9.4654503 187.674
-1.27598 -9.4655704 187.67599
-1.14542 -9.4663095 187.69099
-1.01454 -9.4642801 187.651
-0.88386703 -9.4638205 187.64101
-0.75316602 -9.4628801 187.623
-0.622383 -9.4603004 187.57201
-0.49164501 -9.4572401 187.511
-0.361067 -9.45613 187.489
-0.230483 -9.4535599 187.438
-0.099956296 -9.4496202 187.36
0.030463999 -9.4463396 187.295
0.160789 -9.4427996 187.22501
0.29100001 -9.4387102 187.144
0.421119 -9.4350901 187.07201
0.55111003 -9.4309902 186.991
0.68101001 -9.4272099 186.916
0.81077498 -9.4230604 186.83299
0.94060802 -9.4207497 186.787
1.07034 -9.4181099 186.735
1.20017 -9.4167805 186.709
1.33007 -9.4162397 186.698
1.4598 -9.41469 186.66701
1.58935 -9.4123297 186.621
1.71937 -9.4128799 186.632
1.84896 -9.41119 186.59801
1.9785399 -9.4096804 186.56799
2.10831 -9.4091997 186.55901
2.23823 -9.40938 186.562
2.3673601 -9.4064198 186.50301
2.4971499 -9.4062405 186.5
2.62692 -9.4060202 186.495
2.7560999 -9.4038 186.452
2.88515 -9.4013796 186.40401
3.01513 -9.4020596 186.41701
3.14591 -9.4050598 186.476
3.27595 -9.4056902 186.489
3.4063301 -9.4072399 186.52
3.53631 -9.4075899 186.52699
3.6663101 -9.40798 186.534
3.7981999 -9.4130201 186.634
3.9290099 -9.4151402 186.67599
4.0606999 -9.4191504 186.756
4.1925101 -9.4232101 186.836
4.3232398 -9.4246597 186.86501
4.4538298 -9.4257298 186.886
4.5846 -9.4270802 186.91299
4.7140598 -9.4257698 186.88699
4.84547 -9.4283199 186.938
4.9747 -9.42661 186.90401
5.1041598 -9.4253998 186.88
5.2328601 -9.4228897 186.83
5.3629699 -9.4229698 186.832
5.4919 -9.4210196 186.793
5.6223698 -9.4217396 186.80701
5.7522202 -9.4214201 186.80099
5.8808498 -9.4191599 186.756
6.0100098 -9.4178305 186.73
6.1413898 -9.41996 186.772
6.2716999 -9.4203901 186.78
6.4028902 -9.4221096 186.814
6.5322199 -9.4210701 186.79401
6.6644802 -9.4242096 186.856
6.7955298 -9.42556 186.883
6.9270601 -9.4274998 186.92101
7.05654 -9.4266396 186.90401
7.19033 -9.4314604 187
7.3238001 -9.43571 187.084
7.4595098 -9.4426203 187.22099
7.59407 -9.4478798 187.325
7.7285299 -9.4528503 187.424
7.86413 -9.4589996 187.54601
7.9977598 -9.4626398 187.618
8.1299496 -9.4644699 187.65401
8.2636404 -9.4679699 187.724
8.3954496 -9.4692402 187.74899
8.5297604 -9.4732504 187.82899
8.6619301 -9.4748001 187.85899
8.7950897 -9.4773598 187.91
8.9274902 -9.4790401 187.94299
9.0607996 -9.4816303 187.995
9.1956797 -9.4857702 188.077
9.3285704 -9.4877701 188.116
9.4623804 -9.4906197 188.173
9.5961599 -9.4933701 188.22701
9.7306995 -9.4967899 188.295
9.8657799 -9.5006399 188.37199
10.1374 -9.5094204 188.54601
10.2716 -9.5121202 188.599
10.4053 -9.5143805 188.644
10.5391 -9.5166197 188.688
10.6726 -9.5184603 188.72501
10.807 -9.5211201 188.778
10.9427 -9.5248604 188.85201
11.0774 -9.5276403 188.907
11.2119 -9.5302 188.95799
11.3487 -9.5346203 189.045
11.488 -9.5410004 189.172
11.6277 -9.5475502 189.302
11.7666 -9.55338 189.41701
11.9038 -9.5576801 189.502
12.0405 -9.56147 189.578
12.1758 -9.5640602 189.629
12.3133 -9.5683298 189.714
12.4495 -9.5714903 189.776
12.5881 -9.5764399 189.875
12.7288 -9.5828695 190.002
12.8714 -9.59056 190.15401
13.0147 -9.5985899 190.314
13.1594 -9.6074896 190.49001
13.3041 -9.6162701 190.664
13.449 -9.6249704 190.83701
13.5925 -9.6325302 190.987
13.7342 -9.6386604 191.108
13.8708 -9.6411104 191.157
14.0065 -9.64293 191.19299
14.1474 -9.6482496 191.298
14.2941 -9.6573896 191.479
14.4422 -9.6672897 191.67599
14.5969 -9.6814299 191.95599
14.7573 -9.6990204 192.30499
14.9331 -9.7262897 192.84599
15.0997 -9.7472 193.25999
15.2588 -9.7628803 193.571
15.4189 -9.7789803 193.89
15.5837 -9.7977505 194.26199
15.7496 -9.8168497 194.64101
15.9049 -9.8290701 194.883
16.0564 -9.8387899 195.076
16.2027 -9.84515 195.202
16.347401 -9.8504801 195.308
16.4935 -9.8565197 195.42799
16.6465 -9.8665504 195.627
16.804701 -9.8794899 195.883
16.9648 -9.8933496 196.158
-8.9246101 -9.5504999 192.01199
-8.7850904 -9.5441504 191.884
-8.6461201 -9.5382004 191.76401
-8.5079803 -9.5329905 191.66
-8.3702803 -9.52812 191.562
-8.2332697 -9.5239 191.47701
-8.0955801 -9.5187302 191.373
-7.9579902 -9.5135202 191.26801
-7.82233 -9.5104704 191.207
-7.6861401 -9.50665 191.13
-7.5475798 -9.4997301 190.991
-7.2688298 -9.4829903 190.655
-7.1282301 -9.4725199 190.444
-6.8494701 -9.4537401 190.06599
-6.7114601 -9.4457397 189.90601
-6.5739002 -9.4380398 189.75101
-6.4383502 -9.43297 189.649
-6.3028898 -9.4278402 189.54601
-6.16712 -9.4220104 189.429
-6.0315199 -9.4161901 189.311
-5.89749 -9.4125996 189.239
-5.7634802 -9.4089098 189.16499
-5.63029 -9.4063902 189.114
-5.4958301 -9.4015903 189.01801
-5.3621302 -9.3978796 188.944
-5.2282701 -9.3936996 188.85899
-5.09478 -9.3899899 188.785
-4.9629502 -9.3892202 188.769
-4.8304901 -9.3871803 188.728
-4.69804 -9.3850403 188.685
-4.5652499 -9.3821001 188.62601
-4.4319201 -9.3778296 188.53999
-4.2989302 -9.3740501 188.464
-4.16645 -9.3711596 188.40601
-4.0341001 -9.3683901 188.35001
-3.9019499 -9.3659201 188.30099
-3.76914 -9.36164 188.215
-3.6363699 -9.3571396 188.12399
-3.5040901 -9.3536396 188.054
-3.37205 -9.3505096 187.991
-3.2406299 -9.3489199 187.959
-3.1089499 -9.3464203 187.909
-2.97753 -9.3445101 187.871
-2.8462501 -9.3429003 187.838
-2.71486 -9.3407602 187.795
-2.5842299 -9.3411303 187.80299
-2.4532399 -9.3401699 187.783
-2.3222201 -9.3389997 187.75999
-2.1913099 -9.33811 187.742
-2.0604401 -9.3373203 187.726
-1.92971 -9.3371 187.72099
-1.79866 -9.3352203 187.68401
-1.66833 -9.3370199 187.72
-1.53755 -9.3364697 187.709
-1.40662 -9.3347397 187.674
-1.27591 -9.3343 187.66499
-1.14537 -9.3351402 187.68201
-1.01447 -9.3328695 187.636
-0.883784 -9.3322401 187.62399
-0.75307298 -9.3310499 187.60001
-0.62231803 -9.32868 187.552
-0.49160501 -9.3258696 187.496
-0.361027 -9.3245096 187.468
-0.230455 -9.3218498 187.41499
-0.099948101 -9.3183603 187.345
0.030463301 -9.31567 187.291
0.160786 -9.3121901 187.22099
0.29097199 -9.3074598 187.125
0.421085 -9.3040504 187.05701
0.55106503 -9.3000002 186.976
0.68097103 -9.2964897 186.905
0.81072599 -9.2923603 186.82201
0.94053698 -9.2899399 186.77299
1.07033 -9.2879295 186.733
1.20013 -9.2864399 186.703
1.32999 -9.2856302 186.687
1.45973 -9.2842703 186.659
1.58945 -9.2829304 186.632
1.7194999 -9.2836199 186.646
1.8489799 -9.2813597 186.601
1.97857 -9.2798901 186.571
2.10835 -9.2794199 186.562
2.23823 -9.2794399 186.562
2.3673501 -9.2764797 186.50301
2.4972701 -9.2768097 186.509
2.6269 -9.2760696 186.494
2.75596 -9.2734804 186.442
2.8847499 -9.2702599 186.37801
3.0144 -9.2699604 186.37199
3.1452899 -9.2733603 186.44
3.27581 -9.2754097 186.481
3.4060099 -9.2764397 186.502
3.5357101 -9.2760897 186.495
3.66552 -9.2760496 186.494
3.79759 -9.2815304 186.604
3.9282501 -9.2833004 186.64
4.0598302 -9.2870903 186.716
4.1914902 -9.2908201 186.791
4.3224702 -9.29284 186.832
4.4531102 -9.2940502 186.856
4.5841799 -9.2960596 186.896
4.7139401 -9.2953596 186.882
4.8455801 -9.2983198 186.942
4.9749999 -9.2969799 186.91499
5.1046 -9.29603 186.896
5.2333002 -9.2935305 186.845
5.3638501 -9.2943497 186.862
5.4927001 -9.2922802 186.82001
5.6232901 -9.2931499 186.838
5.7535901 -9.2935305 186.84599
5.8822298 -9.2912598 186.8
6.0116601 -9.2903299 186.78101
6.1427102 -9.2918596 186.812
6.2727299 -9.2918301 186.811
6.4042201 -9.2939196 186.853
6.5330601 -9.29216 186.81799
6.6641698 -9.2936201 186.847
6.7951999 -9.2949305 186.87399
6.9272299 -9.2975302 186.92599
7.0564699 -9.2963696 186.903
7.19029 -9.3011599 186.99899
7.3229699 -9.3043299 187.063
7.59097 -9.3136101 187.24899
7.7256899 -9.3188696 187.355
7.8612599 -9.3249702 187.478
7.9951601 -9.3289299 187.55701
8.1273699 -9.3308096 187.595
8.2612801 -9.3345499 187.67
8.39396 -9.3368101 187.716
8.5278301 -9.3403101 187.786
8.6603899 -9.3422899 187.826
8.7938099 -9.3451204 187.883
8.9265699 -9.3471804 187.924
9.0602102 -9.35009 187.983
9.1949501 -9.3540297 188.062
9.3277397 -9.3558998 188.099
9.4614697 -9.3586597 188.155
9.5952501 -9.3613796 188.21001
9.7296104 -9.3646002 188.274
9.8640099 -9.3677597 188.338
9.9991102 -9.3715 188.41299
10.1349 -9.3758097 188.5
10.2698 -9.3790903 188.56599
10.4038 -9.3816299 188.617
10.5371 -9.3834105 188.65199
10.671 -9.3856401 188.69701
10.806 -9.3887901 188.761
10.9417 -9.3924904 188.83501
11.0763 -9.3951101 188.888
11.2105 -9.3974304 188.93401
11.3473 -9.4018097 189.022
11.4871 -9.4084902 189.157
11.6264 -9.4146404 189.28
11.7654 -9.4204397 189.397
11.9022 -9.4244299 189.47701
12.0388 -9.42803 189.55
12.175 -9.4313698 189.617
12.3127 -9.4357405 189.705
12.449 -9.4389095 189.76801
12.5872 -9.44347 189.86
12.7279 -9.4498596 189.989
12.8704 -9.4573803 190.14
13.0122 -9.4641895 190.27699
13.1557 -9.4721899 190.437
13.301 -9.4812498 190.62
13.4457 -9.4897099 190.78999
13.59 -9.4977102 190.951
13.7342 -9.5054998 191.10699
13.871 -9.5081196 191.16
14.0064 -9.5096998 191.19099
14.1458 -9.5139503 191.27699
14.293 -9.5233002 191.465
14.4409 -9.5329504 191.659
14.5949 -9.5463696 191.929
14.7571 -9.56493 192.302
14.9315 -9.59093 192.825
15.0985 -9.6118097 193.244
15.2596 -9.6285696 193.582
15.4197 -9.6444101 193.89999
15.5823 -9.6615295 194.244
15.7471 -9.6796999 194.60899
15.9051 -9.6934795 194.886
16.0576 -9.7035999 195.09
16.2043 -9.7101698 195.222
16.3503 -9.7161503 195.342
16.496401 -9.7221003 195.46201
16.6472 -9.7307301 195.63499
16.802999 -9.7420797 195.86301
16.9646 -9.7566004 196.155
17.181999 -9.8027401 197.08299
-8.9242802 -9.4164 192.005
-8.78405 -9.40938 191.86099
-8.6454802 -9.4039402 191.75
-8.50774 -9.39923 191.65401
-8.3694696 -9.3937902 191.543
-8.2326498 -9.3898201 191.463
-8.0953197 -9.3851299 191.367
-7.9576302 -9.3798704 191.25999
-7.8214898 -9.3762798 191.186
-7.68401 -9.3709297 191.077
-7.5448298 -9.3632803 190.92101
-7.4047999 -9.35429 190.73801
-7.1240301 -9.3343697 190.332
-6.9849501 -9.3255901 190.153
-6.84619 -9.3168898 189.976
-6.7090802 -9.3101597 189.838
-6.5722599 -9.3035498 189.703
-6.4374499 -9.2995901 189.623
-6.3024101 -9.2951097 189.53101
-6.1670098 -9.2898998 189.425
-6.0313201 -9.2840099 189.30499
-5.89748 -9.2807798 189.239
-5.7634101 -9.27703 189.16299
-5.6293998 -9.2732 189.08501
-5.4953799 -9.2691803 189.00301
-5.3613501 -9.2649298 188.916
-5.2279701 -9.2616196 188.849
-5.0942898 -9.2575998 188.767
-4.96279 -9.2574396 188.763
-4.8302798 -9.2553101 188.72
-4.6973901 -9.2523499 188.659
-4.5646 -9.2493896 188.599
-4.4309702 -9.2445097 188.5
-4.2981501 -9.2410803 188.42999
-4.1649899 -9.23668 188.34
-4.0325198 -9.2335901 188.27699
-3.90062 -9.2316103 188.237
-3.7683499 -9.22861 188.175
-3.63537 -9.2235699 188.073
-3.50317 -9.2202301 188.004
-3.3713601 -9.2176905 187.953
-3.2400601 -9.2163897 187.92599
-3.1084199 -9.2139797 187.877
-2.9771399 -9.2124596 187.84599
-2.846 -9.2112703 187.82201
-2.5841401 -9.2100096 187.79601
-2.45309 -9.2087898 187.771
-2.32195 -9.2071304 187.737
-2.1910601 -9.2062998 187.72
-2.06024 -9.2056704 187.70799
-1.92962 -9.2059202 187.713
-1.79872 -9.2047796 187.689
-1.66845 -9.2069397 187.733
-1.53765 -9.2062998 187.72
-1.4067301 -9.2047396 187.689
-1.2759399 -9.2038097 187.67
-1.14536 -9.2043304 187.67999
-1.01441 -9.2016602 187.62601
-0.88372302 -9.2009096 187.61099
-0.75298601 -9.1993198 187.578
-0.62225002 -9.1970396 187.532
-0.49157599 -9.1947403 187.485
-0.36097699 -9.1926603 187.442
-0.23044699 -9.1910105 187.409
-0.099937901 -9.1869297 187.325
0.0304628 -9.18507 187.28799
0.16077 -9.18085 187.202
0.290961 -9.1767797 187.119
0.42104301 -9.1728401 187.03799
0.55105102 -9.1695299 186.97099
0.68094999 -9.1660204 186.899
0.81068599 -9.1617899 186.813
0.94051898 -9.1596804 186.77
1.07037 -9.1582098 186.74001
1.20008 -9.1560202 186.69501
1.3299 -9.1549702 186.674
1.45982 -9.1548004 186.67
1.5898 -9.1549397 186.673
1.7198499 -9.1554499 186.68401
1.8492399 -9.1526403 186.62601
1.97864 -9.1502199 186.577
2.1083801 -9.1496296 186.565
2.2383399 -9.14993 186.571
2.36724 -9.1461697 186.494
2.4970801 -9.1461897 186.495
2.6270499 -9.1466999 186.505
2.7558999 -9.1434202 186.438
2.8843901 -9.1393099 186.355
3.0137701 -9.1382504 186.33299
3.1451299 -9.1430197 186.42999
3.2757101 -9.1452398 186.476
3.40557 -9.1453695 186.478
3.53544 -9.1455002 186.481
3.6647401 -9.1442003 186.45399
3.79656 -9.1490698 186.55299
3.9272599 -9.151 186.593
4.0590301 -9.1552401 186.679
4.1904998 -9.1585503 186.74699
4.3213601 -9.1603403 186.783
4.4525599 -9.1627598 186.83299
4.5838699 -9.1652603 186.884
4.7144499 -9.1661797 186.903
4.84588 -9.1686802 186.953
4.9755001 -9.1676998 186.933
5.10495 -9.1664896 186.909
5.3641701 -9.1647501 186.873
5.4939899 -9.1642904 186.864
5.6245098 -9.165 186.87801
5.7545099 -9.1648502 186.875
5.8832502 -9.1627502 186.832
6.01299 -9.1622496 186.82201
6.1435399 -9.1629896 186.83701
6.2732902 -9.1625204 186.828
6.4050002 -9.1648798 186.87601
6.5336599 -9.1628799 186.83501
6.6641102 -9.1633902 186.84599
6.7952299 -9.1648197 186.875
6.9274302 -9.1675901 186.931
7.0571699 -9.1670904 186.92101
7.19034 -9.17097 187
7.3225298 -9.1735001 187.052
7.4562302 -9.1777802 187.13901
7.5892401 -9.1810799 187.20599
7.7221398 -9.1841497 187.269
7.8587198 -9.1914196 187.41701
7.9925599 -9.1952896 187.496
8.1254196 -9.1979303 187.55
8.2597103 -9.2020903 187.63499
8.3933296 -9.2053699 187.702
8.5261402 -9.2076902 187.74899
8.6593704 -9.2103701 187.804
8.7923603 -9.2127304 187.85201
8.9254103 -9.2150898 187.89999
9.0596704 -9.2186003 187.97099
9.1939602 -9.2220497 188.04201
9.3267097 -9.2238703 188.07899
9.4603395 -9.2264996 188.132
9.5940104 -9.2290897 188.185
9.7280703 -9.2320004 188.245
9.8628902 -9.2355299 188.317
9.9978304 -9.2390804 188.38901
10.1335 -9.2431803 188.47301
10.2679 -9.2460804 188.532
10.4019 -9.24856 188.582
10.5348 -9.2499304 188.61
10.6689 -9.2523699 188.66
10.8046 -9.2561102 188.73599
10.9397 -9.2592897 188.80099
11.0745 -9.2620602 188.85699
11.2093 -9.2647896 188.91299
11.3463 -9.26931 189.005
11.4868 -9.2765398 189.153
11.6256 -9.2822199 189.26801
11.7632 -9.2867899 189.362
11.9009 -9.2913704 189.455
12.0374 -9.2949305 189.528
12.174 -9.2985201 189.601
12.3118 -9.3028803 189.69
12.4484 -9.3062696 189.759
12.5858 -9.3102398 189.84
12.7264 -9.31637 189.965
12.8689 -9.3238497 190.117
13.0085 -9.3290396 190.22301
13.1508 -9.3360395 190.366
13.2953 -9.3444405 190.537
13.44 -9.3528404 190.70799
13.5864 -9.3622303 190.89999
13.7333 -9.37183 191.09599
13.8706 -9.3747196 191.155
14.0065 -9.3766003 191.19299
14.1457 -9.3806105 191.27499
14.2924 -9.3895197 191.45599
14.4408 -9.3993702 191.657
14.5936 -9.41189 191.912
14.756 -9.4302597 192.287
14.9298 -9.4555998 192.804
15.0966 -9.4760103 193.22
15.2607 -9.4944 193.595
15.4217 -9.5105801 193.925
15.5839 -9.5272398 194.265
15.744 -9.5422897 194.571
15.9039 -9.5570202 194.87199
16.0583 -9.5681696 195.099
16.2062 -9.5752897 195.244
16.3531 -9.5817499 195.37601
16.499201 -9.5875597 195.495
16.6472 -9.5944405 195.63499
16.8015 -9.6047802 195.84599
16.9638 -9.6195002 196.146
17.1695 -9.6584501 196.94
-8.9239902 -9.2823696 191.99899
-8.7838802 -9.2755604 191.858
-8.6451197 -9.2699804 191.742
-8.5070496 -9.2649899 191.63901
-8.3687096 -9.2595301 191.526
-8.23141 -9.2550697 191.43401
-8.0947199 -9.2511597 191.353
-7.9573202 -9.2462902 191.252
-7.8204699 -9.24191 191.162
-7.6807299 -9.2338896 190.996
-7.4014502 -9.2172699 190.65199
-7.2600999 -9.2063198 190.425
-6.9821401 -9.1894398 190.076
-6.8438802 -9.1814804 189.912
-6.7073202 -9.1755199 189.78799
-6.5717702 -9.1707401 189.689
-6.43713 -9.1670504 189.61301
-6.3020201 -9.1625299 189.52
-6.03193 -9.15308 189.32401
-5.8975 -9.1490097 189.24001
-5.76337 -9.1452103 189.161
-5.6292801 -9.1413002 189.08099
-5.4945302 -9.1361103 188.97301
-5.36064 -9.1321402 188.89101
-5.2276101 -9.1294603 188.836
-5.0939002 -9.1254301 188.752
-4.9622502 -9.1249599 188.743
-4.8297901 -9.1229496 188.701
-4.6970901 -9.1203604 188.647
-4.5638199 -9.1164703 188.567
-4.43011 -9.1114597 188.463
-4.2969198 -9.1072397 188.37601
-4.1637802 -9.10285 188.285
-4.0313401 -9.0997696 188.222
-3.8993299 -9.0974903 188.174
-3.7671199 -9.0945702 188.114
-3.63446 -9.0902996 188.026
-3.5026 -9.0878096 187.974
-3.37078 -9.0852098 187.92
-3.2394199 -9.0837002 187.88901
-3.1080699 -9.0820799 187.856
-2.9768901 -9.0808496 187.83
-2.84588 -9.08006 187.814
-2.7148499 -9.0790997 187.79401
-2.58373 -9.0777397 187.76601
-2.4527099 -9.0766096 187.742
-2.32164 -9.0751495 187.71201
-2.1907499 -9.0742502 187.694
-2.0601499 -9.0745401 187.7
-1.9295501 -9.0748701 187.70599
-1.79888 -9.0748701 187.70599
-1.66865 -9.0773001 187.757
-1.53785 -9.0767498 187.745
-1.4069 -9.0751305 187.71201
-1.2760201 -9.0736399 187.681
-1.14537 -9.0737 187.68201
-1.01438 -9.0706997 187.62
-0.88366997 -9.0697002 187.60001
-0.75294298 -9.06814 187.567
-0.62218702 -9.0655098 187.513
-0.49151999 -9.0631199 187.464
-0.36096001 -9.0616903 187.43401
-0.230434 -9.0599604 187.39799
-0.099935099 -9.0562 187.32001
0.030461101 -9.0541 187.27699
0.16078199 -9.0511904 187.217
0.29098299 -9.0471201 187.132
0.421087 -9.0434999 187.058
0.55108899 -9.0399199 186.983
0.68097597 -9.03619 186.90601
0.81070399 -9.0318699 186.817
0.94050902 -9.0294905 186.76801
1.07033 -9.0278502 186.73399
1.2 -9.0253601 186.68201
1.3298301 -9.0245104 186.66499
1.4598401 -9.02491 186.673
1.58986 -9.0252504 186.67999
1.72001 -9.0262899 186.702
1.8494 -9.0234499 186.64301
1.9787101 -9.0206203 186.584
2.1084499 -9.0199499 186.571
2.2383399 -9.01999 186.571
2.3675201 -9.0173302 186.51601
2.4971399 -9.0165195 186.49899
2.6270199 -9.0166798 186.50301
2.75581 -9.0132799 186.433
2.8843999 -9.0095301 186.355
3.0136199 -9.0080204 186.32401
3.1444099 -9.0110903 186.38699
3.27619 -9.0166702 186.50301
3.4060199 -9.0166702 186.50301
3.53473 -9.0137997 186.44299
3.6644001 -9.0135002 186.437
3.79615 -9.0181503 186.533
3.92665 -9.01964 186.564
4.0581698 -9.0232897 186.64
4.32059 -9.0286398 186.75
4.4516501 -9.0307903 186.795
4.5833702 -9.0340996 186.86301
4.7144098 -9.0359201 186.901
4.8461499 -9.0389605 186.964
4.9756799 -9.0378304 186.94
5.1052999 -9.0369196 186.92101
5.2347202 -9.0356998 186.896
5.3646498 -9.0353899 186.89
5.49471 -9.0353203 186.888
5.6255598 -9.0365295 186.91299
5.7554498 -9.03617 186.90601
5.8840399 -9.0338202 186.85699
6.0138001 -9.0333405 186.84801
6.1445198 -9.0342903 186.867
6.27421 -9.03372 186.855
6.4058099 -9.0358601 186.89999
6.5345802 -9.0340099 186.86099
6.6646099 -9.0339403 186.86
6.7952499 -9.0346699 186.875
6.92735 -9.0372896 186.929
7.0573902 -9.0371704 186.927
7.19034 -9.04072 187
7.3228502 -9.0436096 187.06
7.4556999 -9.0467901 187.12601
7.5880799 -9.0493097 187.17799
7.7209802 -9.0523596 187.241
7.85671 -9.0585499 187.369
7.9909301 -9.06285 187.45799
8.1238499 -9.0655499 187.51401
8.2581902 -9.0697298 187.60001
8.3920403 -9.0732403 187.673
8.5250101 -9.0757103 187.724
8.6582098 -9.0783501 187.77901
8.79105 -9.0805302 187.82401
8.9235096 -9.0822802 187.86
9.0578299 -9.0858297 187.933
9.1920204 -9.0891504 188.002
9.3257904 -9.0919704 188.06
9.4593296 -9.0944901 188.112
9.5925903 -9.0966702 188.157
9.7265797 -9.0994797 188.216
9.8622999 -9.1038198 188.30499
9.9970503 -9.1071501 188.37399
10.1327 -9.1111898 188.45799
10.2664 -9.1134701 188.505
10.4004 -9.11586 188.554
10.5333 -9.1173 188.584
10.6675 -9.11975 188.63499
10.8027 -9.1230497 188.703
10.9379 -9.1262398 188.769
11.0725 -9.1288795 188.82401
11.2073 -9.1316299 188.88
11.3446 -9.1363001 188.97701
11.4849 -9.1432104 189.12
11.6235 -9.1487398 189.23399
11.7607 -9.1529799 189.32201
11.8986 -9.15769 189.42
12.0358 -9.1617403 189.50301
12.1728 -9.1655397 189.582
12.3107 -9.1699696 189.673
12.4473 -9.1733103 189.743
12.5853 -9.1776199 189.832
12.7262 -9.18396 189.963
12.8682 -9.1909103 190.10699
13.0062 -9.1949301 190.19
13.1471 -9.2008801 190.313
13.29 -9.2080498 190.461
13.4334 -9.2154999 190.61501
13.5836 -9.2273598 190.86099
13.7317 -9.2376003 191.07201
13.87 -9.2411699 191.146
14.0063 -9.2432699 191.19
14.1455 -9.2472496 191.272
14.2912 -9.2553797 191.44
14.4404 -9.2656002 191.65199
14.5923 -9.27736 191.895
14.7537 -9.2948704 192.257
14.928 -9.3201303 192.77901
15.0953 -9.3406401 193.20399
15.2614 -9.3600397 193.605
15.4241 -9.3769903 193.955
15.5863 -9.3933601 194.29401
15.7428 -9.4060297 194.556
15.9026 -9.4204702 194.855
16.0592 -9.4328003 195.11
16.207899 -9.4403 195.265
16.355801 -9.4472103 195.408
16.502001 -9.4530497 195.52901
16.8025 -9.4689798 195.858
16.963699 -9.4828701 196.146
17.156 -9.5137901 196.785
-8.9239702 -9.1486197 191.998
-8.78407 -9.1421299 191.862
-8.6451702 -9.1364803 191.743
-8.5066299 -9.1310596 191.629
-8.36798 -9.12533 191.509
-8.2301998 -9.1204004 191.40601
-8.0936499 -9.1166697 191.328
-7.9561901 -9.1117802 191.22501
-7.6781402 -9.0978003 190.931
-7.5383801 -9.0895395 190.758
-7.3981199 -9.0803804 190.56599
-7.2571998 -9.0700598 190.349
-7.1173801 -9.0607595 190.15401
-6.9791598 -9.0531702 189.995
-6.8415198 -9.0460701 189.84599
-6.70544 -9.0407896 189.735
-6.4366002 -9.0342302 189.597
-6.3016801 -9.0300303 189.509
-6.1669402 -9.0259199 189.423
-6.0320501 -9.0214005 189.328
-5.8969898 -9.0164099 189.22301
-5.7628102 -9.0125799 189.14301
-5.6284599 -9.0082998 189.05299
-5.4931898 -9.0023003 188.927
-5.3597398 -8.9990501 188.85899
-5.22685 -8.9966297 188.808
-5.09341 -8.9930897 188.73399
-4.96175 -8.9925804 188.72301
-4.8291898 -8.9904003 188.67799
-4.69661 -8.98804 188.62801
-4.56286 -8.9832296 188.52699
-4.4291701 -8.9782801 188.423
-4.2957001 -8.9734898 188.323
-4.1626101 -8.9692001 188.233
-4.03023 -8.9662104 188.17
-3.89834 -8.96416 188.127
-3.76612 -8.9611702 188.064
-3.63378 -8.9576597 187.991
-3.50192 -8.9551401 187.938
-3.37012 -8.9525499 187.883
-3.23873 -8.9509096 187.849
-3.1077099 -8.9502001 187.834
-2.97665 -8.9493103 187.815
-2.84547 -8.9479504 187.787
-2.71452 -8.9471998 187.771
-2.58342 -8.9459 187.744
-2.4524901 -8.9450302 187.726
-2.32145 -8.9436598 187.69701
-2.1905799 -8.9428196 187.679
-2.06007 -8.94345 187.692
-1.9296401 -8.9445295 187.715
-1.79909 -8.9452 187.729
-1.66888 -8.9477301 187.782
-1.538 -8.9468603 187.76401
-1.27604 -8.9430799 187.68401
-1.14536 -8.9429102 187.681
-1.0143501 -8.9397497 187.61501
-0.883591 -8.9382296 187.58299
-0.75290197 -8.9370098 187.55701
-0.62215298 -8.9344196 187.50301
-0.49147001 -8.9316301 187.444
-0.36094901 -8.93085 187.42799
-0.230426 -8.9291296 187.392
-0.0999384 -8.9260197 187.327
0.030461701 -8.9238396 187.28101
0.16078299 -8.9208298 187.218
0.29100099 -8.9173203 187.144
0.42114401 -8.9144201 187.08299
0.55111599 -8.91012 186.993
0.681005 -8.9063797 186.914
0.810745 -8.9021997 186.827
0.94048601 -8.8991804 186.763
1.0702699 -8.8972597 186.72301
1.19996 -8.8950596 186.677
1.3298 -8.8942804 186.66
1.45986 -8.8950195 186.67599
1.5898 -8.8948898 186.673
1.72004 -8.8964005 186.705
1.9789 -8.8915195 186.60201
2.10869 -8.8910103 186.592
2.2384501 -8.8904696 186.58
2.36765 -8.8878899 186.526
2.4971399 -8.8865995 186.49899
2.6270001 -8.8866997 186.50101
2.7558501 -8.8835297 186.435
2.88464 -8.8804798 186.371
3.0139501 -8.8791904 186.34399
3.1442599 -8.8808603 186.379
3.27637 -8.8872604 186.513
3.4072001 -8.8898497 186.567
3.5344901 -8.8833399 186.431
3.6633899 -8.8811798 186.38499
3.7958901 -8.88762 186.521
3.92624 -8.8887701 186.545
4.0573301 -8.8914404 186.601
4.18893 -8.89505 186.677
4.3197098 -8.89676 186.71201
4.45086 -8.8990898 186.761
4.5826201 -8.9024897 186.83299
4.7140098 -8.9049997 186.88499
4.8462601 -8.9089403 186.968
4.97579 -8.9078197 186.94501
5.1054902 -8.9070501 186.92799
5.2350798 -8.9061298 186.909
5.3650498 -8.90588 186.90401
5.4951901 -8.9059296 186.905
5.6261802 -8.9073095 186.93401
5.75635 -8.9073601 186.935
5.8848 -8.9048204 186.882
6.0145702 -8.9043303 186.871
6.1454701 -8.9055004 186.896
6.2753501 -8.90518 186.88901
6.40661 -8.9068003 186.923
6.5357099 -8.9053898 186.894
6.6652498 -8.9046297 186.87801
6.79603 -8.9055405 186.897
6.9277101 -8.9075499 186.939
7.0581298 -8.9079199 186.94701
7.19068 -8.9108896 187.009
7.3236499 -8.9142904 187.08
7.4559302 -8.9167299 187.131
7.5877199 -8.9185104 187.16901
7.7202702 -8.9211197 187.224
7.85496 -8.9260597 187.327
7.9895802 -8.9307699 187.42599
8.1225796 -8.9335403 187.48399
8.2571297 -8.9379101 187.576
8.3907299 -8.9411297 187.644
8.5232496 -8.9431105 187.685
8.6564102 -8.9456902 187.739
8.7893801 -8.9480104 187.78799
8.9216604 -8.9495697 187.821
9.05581 -8.9529305 187.89101
9.1900597 -8.9562902 187.96201
9.3244801 -8.9597197 188.034
9.4579697 -8.9621801 188.08501
9.5913095 -8.9644299 188.132
9.7256498 -8.9675303 188.198
9.8613396 -8.9717903 188.287
9.9955902 -8.9746304 188.347
10.265 -8.9808903 188.478
10.3992 -8.98349 188.532
10.5326 -8.9853296 188.571
10.6667 -8.98771 188.621
10.8019 -8.9909096 188.688
10.9366 -8.9937096 188.74699
11.0711 -8.9961901 188.799
11.206 -8.9990101 188.858
11.3434 -9.0036898 188.957
11.4833 -9.0102997 189.095
11.6223 -9.0159502 189.214
11.7593 -9.0200396 189.3
11.8968 -9.0243998 189.39101
12.0342 -9.0285702 189.479
12.1717 -9.0327101 189.56599
12.3094 -9.0369301 189.65401
12.4461 -9.0402803 189.724
12.5841 -9.0445204 189.813
12.7253 -9.0510197 189.95
12.8667 -9.0574703 190.08501
13.0051 -9.0616503 190.173
13.1445 -9.0664797 190.274
13.286 -9.0726995 190.405
13.4284 -9.07934 190.54401
13.5799 -9.0919504 190.80901
13.728 -9.1020603 191.021
13.8685 -9.1070499 191.12601
14.0057 -9.1097298 191.18201
14.1444 -9.1133204 191.257
14.2899 -9.1212301 191.423
14.4388 -9.1310997 191.63
14.5915 -9.1432304 191.88499
14.7511 -9.1593399 192.22301
14.9244 -9.1836596 192.73399
15.0945 -9.2055397 193.19299
15.2629 -9.2260599 193.623
15.426 -9.2430496 193.98
15.5869 -9.2584 194.302
15.7425 -9.27034 194.55299
15.9018 -9.2842798 194.845
16.059099 -9.2968302 195.108
16.210899 -9.3060303 195.302
16.360901 -9.3140097 195.46899
16.5068 -9.31952 195.58501
16.6511 -9.3241196 195.681
16.8053 -9.3340702 195.89
16.9648 -9.3468103 196.157
17.1446 -9.37047 196.65401
-8.9238195 -9.0147305 191.995
-8.7837496 -9.0081596 191.855
-8.6448002 -9.0025501 191.735
-8.5062103 -8.9971304 191.62
-8.3679304 -8.99189 191.508
-8.2301502 -8.9870195 191.40401
-8.09303 -8.9827204 191.313
-7.9544401 -8.9766197 191.183
-7.8155398 -8.9699497 191.041
-7.6750698 -8.9612198 190.855
-7.5345101 -8.9520798 190.66
-7.25388 -8.9334002 190.26199
-7.1146998 -8.9249496 190.08299
-6.8393502 -8.9110098 189.786
-6.7047801 -8.9077501 189.716
-6.57056 -8.9048405 189.65401
-6.4365201 -8.9020596 189.595
-6.3020301 -8.89853 189.52
-6.1669502 -8.8939896 189.423
-6.0317998 -8.8891497 189.32001
-5.8965502 -8.8839502 189.209
-5.7621598 -8.8798399 189.12199
-5.6272898 -8.8747597 189.01401
-5.4920402 -8.8688498 188.888
-5.3593502 -8.8668604 188.845
-5.2260199 -8.8637104 188.778
-5.0927901 -8.8605499 188.711
-4.9611702 -8.8600998 188.701
-4.8284898 -8.8577003 188.64999
-4.6958899 -8.8552904 188.599
-4.5619302 -8.8501196 188.489
-4.42836 -8.8454304 188.38901
-4.29491 -8.8406801 188.28799
-4.1616702 -8.8360901 188.19
-4.0295501 -8.8336601 188.138
-3.8977499 -8.8317804 188.09801
-3.7657399 -8.8292904 188.045
-3.6335399 -8.8261499 187.978
-3.5014801 -8.8231297 187.914
-3.3698001 -8.8208504 187.86501
-3.2385199 -8.81952 187.83701
-3.1075399 -8.8189001 187.82401
-2.9764299 -8.8178501 187.802
-2.84515 -8.8161497 187.765
-2.71421 -8.8154097 187.75
-2.5830901 -8.8139801 187.71899
-2.4521699 -8.8131304 187.701
-2.3213401 -8.81252 187.688
-2.1905301 -8.8119097 187.675
-2.05987 -8.8118696 187.674
-1.9297 -8.8140497 187.72099
-1.79928 -8.8153696 187.74899
-1.66899 -8.8175402 187.795
-1.53803 -8.8162298 187.767
-1.40689 -8.81355 187.71001
-1.27596 -8.8118095 187.673
-1.14529 -8.8116598 187.67
-1.0142699 -8.8084202 187.601
-0.883524 -8.8069096 187.569
-0.752846 -8.8057098 187.543
-0.62209898 -8.80305 187.48599
-0.49143299 -8.8004198 187.42999
-0.36095199 -8.8003902 187.42999
-0.230426 -8.7985897 187.39101
-0.099942997 -8.7959499 187.33501
0.0304642 -8.7940998 187.29601
0.16078299 -8.7903996 187.217
0.29101101 -8.7873001 187.151
0.421186 -8.7849903 187.10201
0.55115902 -8.7805595 187.007
0.681041 -8.7766504 186.924
0.81078899 -8.7725401 186.83701
0.94052202 -8.7694302 186.77
1.07025 -8.7670097 186.71899
1.2 -8.7653103 186.683
1.32979 -8.7641897 186.659
1.45977 -8.7644196 186.664
1.58979 -8.7648296 186.672
1.72012 -8.7667599 186.713
1.84966 -8.7646704 186.66901
1.97913 -8.7625599 186.62399
2.1089799 -8.7622404 186.617
2.23878 -8.7618103 186.608
2.3679099 -8.7589302 186.547
2.49735 -8.7574501 186.515
2.6271801 -8.7573996 186.51401
2.7560501 -8.7543097 186.448
2.8849599 -8.7516298 186.39101
3.0146599 -8.7514696 186.388
3.1447999 -8.7525501 186.411
3.27705 -8.7591696 186.552
3.4079299 -8.7617702 186.60699
3.5346601 -8.7539101 186.44
3.66241 -8.7490196 186.336
3.7951901 -8.7560902 186.48599
3.92593 -8.7581396 186.53
4.0565701 -8.75984 186.56599
4.18785 -8.7627602 186.62801
4.3189301 -8.76511 186.67799
4.4499898 -8.7672901 186.72501
4.5817699 -8.7707195 186.798
4.71316 -8.7732296 186.851
4.8457999 -8.7778702 186.95
4.9758401 -8.7776899 186.946
5.1055999 -8.77703 186.93201
5.2353702 -8.7764301 186.91901
5.3653898 -8.7762604 186.916
5.4956398 -8.7764597 186.92
5.62674 -8.7779799 186.952
5.7568002 -8.7778597 186.95
5.8852701 -8.7753496 186.896
6.0151401 -8.7749996 186.88901
6.1462202 -8.7764101 186.91901
6.2761598 -8.7761497 186.91299
6.4071798 -8.77738 186.94
6.5363402 -8.7760601 186.911
6.6657 -8.7750597 186.89
6.79671 -8.7762299 186.91499
6.9286199 -8.7785101 186.964
7.0591898 -8.7790203 186.97501
7.1913099 -8.7814102 187.02499
7.3241801 -8.7846098 187.09399
7.4566002 -8.7871704 187.14799
7.5884099 -8.7889404 187.186
7.7203398 -8.7907896 187.22501
7.85395 -8.7944498 187.30299
7.9883699 -8.7988901 187.39799
8.1217804 -8.8020897 187.466
8.2564898 -8.8065701 187.561
8.3891802 -8.8087997 187.60899
8.5215797 -8.8106604 187.64799
8.6543999 -8.8128796 187.696
8.7879896 -8.8158197 187.758
8.9203596 -8.8174601 187.793
9.0542202 -8.8205099 187.858
9.1888599 -8.8242102 187.937
9.3226404 -8.8270102 187.99699
9.4559202 -8.8292599 188.04401
9.5896301 -8.8318396 188.099
9.7243204 -8.8352404 188.172
9.8593998 -8.8388996 188.25
9.9937201 -8.8417902 188.311
10.1287 -8.8451595 188.383
10.3978 -8.8509798 188.507
10.5314 -8.8530197 188.55099
10.6659 -8.8556299 188.606
10.8013 -8.8590603 188.679
10.936 -8.8617897 188.737
