# .PCD v0.7 - Point Cloud Data file format
VERSION 0.7
FIELDS x y z
SIZE 4 4 4
TYPE F F F
COUNT 1 1 1
WIDTH 1747
HEIGHT 1
VIEWPOINT 0 0 0 1 0 0 0
POINTS 1747
DATA ascii
8.79844 16.543301 193.745
8.9433002 16.5618 193.961
9.0868397 16.577299 194.14301
9.2288399 16.5896 194.287
9.3741102 16.607401 194.495
9.5189505 16.6238 194.688
9.6645899 16.6413 194.892
9.8083496 16.655001 195.05299
9.9555397 16.674101 195.27699
10.102 16.691401 195.479
10.2499 16.7108 195.707
10.3975 16.729 195.92
10.5435 16.744301 196.099
10.692 16.763 196.31799
10.8412 16.782499 196.547
10.9934 16.806 196.821
11.3038 16.8603 197.457
11.4575 16.884199 197.737
11.6128 16.909901 198.03799
-9.4672699 17.024099 197.763
-9.3248796 17.015499 197.66299
-9.1816301 17.0051 197.54201
-9.0384998 16.994499 197.41901
-8.8965702 16.985901 197.319
-8.7547598 16.977301 197.21899
-8.6134596 16.9694 197.127
-8.47262 16.9622 197.043
-8.3308897 16.9529 196.936
-8.1883202 16.941601 196.804
-8.0475197 16.933599 196.711
-7.9081602 16.9284 196.651
-7.7691202 16.9238 196.597
-7.6293402 16.917299 196.522
-7.4893999 16.9102 196.44
-7.3498502 16.903799 196.36501
-7.2105098 16.8976 196.293
-7.0704799 16.8895 196.19901
-6.9314799 16.8836 196.131
-6.7932301 16.8794 196.082
-6.6536999 16.8717 195.992
-6.5131001 16.860901 195.867
-6.3728199 16.850599 195.74699
-6.23348 16.8423 195.64999
-6.0943198 16.834101 195.55499
-5.9556999 16.827101 195.474
-5.8164701 16.818001 195.368
-5.6768498 16.807301 195.244
-5.5377498 16.7976 195.132
-5.3989 16.7883 195.02299
-5.25982 16.7777 194.89999
-5.1219001 16.770399 194.815
-4.98383 16.7621 194.71899
-4.84478 16.75 194.57899
-4.7065401 16.740101 194.464
-4.4307699 16.721201 194.244
-4.29286 16.710699 194.12199
-4.15557 16.702101 194.022
-4.0180898 16.692101 193.90601
-3.8812799 16.684299 193.815
-3.7442 16.674601 193.703
-3.6073401 16.6654 193.595
-3.47121 16.6588 193.519
-3.3350799 16.6518 193.438
-3.1987 16.642799 193.33299
-3.0624499 16.633801 193.229
-2.79268 16.6294 193.17799
-2.65693 16.6215 193.086
-2.52163 16.6157 193.01801
-2.3858299 16.6057 192.90199
-2.25001 16.5944 192.772
-1.9799401 16.5804 192.608
-1.8447599 16.570601 192.494
-1.70968 16.560101 192.373
-1.57495 16.551701 192.27499
-1.44034 16.5429 192.173
-1.30591 16.5347 192.077
-1.17164 16.526899 191.98599
-1.03742 16.517799 191.882
-0.90328503 16.5077 191.76401
-0.76937699 16.498899 191.661
-0.635562 16.488701 191.54401
-0.501939 16.479601 191.437
-0.36849201 16.4716 191.345
-0.23519801 16.465401 191.272
-0.102017 16.4611 191.222
0.031094899 16.4569 191.174
0.16409799 16.448601 191.078
0.29697499 16.4408 190.98599
0.42975199 16.433901 190.907
0.69491303 16.4188 190.731
0.82774103 16.4198 190.743
0.96020103 16.414301 190.67799
1.0924799 16.4072 190.597
1.22492 16.403999 190.55901
1.35712 16.3985 190.495
1.4890701 16.391199 190.41
1.62149 16.389799 190.395
1.75397 16.3892 190.38699
2.0174601 16.3764 190.239
2.14924 16.371401 190.17999
2.2808001 16.3654 190.11099
2.41308 16.365 190.106
2.6769199 16.3598 190.045
2.8082199 16.354 189.978
2.9404199 16.3536 189.974
3.0717299 16.3486 189.916
3.2042301 16.3501 189.933
3.33584 16.347099 189.89799
3.4679301 16.3466 189.89301
3.6000299 16.346201 189.888
3.73248 16.3473 189.901
3.8649399 16.3484 189.91299
3.9965899 16.3461 189.88699
4.1292901 16.3482 189.91
4.2611198 16.346701 189.894
4.3936 16.347799 189.90601
4.5258498 16.3479 189.908
4.6586299 16.35 189.931
4.7905502 16.3489 189.91901
4.9242702 16.353901 189.978
5.0584698 16.360201 190.05099
5.1928701 16.3668 190.12801
5.3280702 16.375601 190.229
5.4622502 16.3808 190.28999
5.598 16.3904 190.40199
5.7336602 16.3993 190.505
5.8681898 16.404699 190.567
6.00424 16.4139 190.675
6.14152 16.4261 190.81599
6.2786198 16.437201 190.94501
6.4159398 16.4485 191.076
6.5539598 16.4611 191.222
6.6932902 16.4764 191.39999
6.8312802 16.487801 191.533
6.9689202 16.497999 191.651
7.10847 16.512199 191.817
7.24891 16.528 191.99899
7.3889999 16.5424 192.16701
7.52636 16.550301 192.258
7.66611 16.563 192.407
7.94592 16.5879 192.696
8.08675 16.601601 192.855
8.2304697 16.6208 193.077
8.3730698 16.636999 193.26601
8.5141296 16.649799 193.414
8.6535597 16.659 193.521
8.7957296 16.6731 193.685
8.9398298 16.690399 193.886
9.0846796 16.708599 194.097
9.2279196 16.723301 194.26801
9.3735104 16.7418 194.483
9.5187597 16.7591 194.685
9.6645403 16.776899 194.89101
9.8081503 16.790501 195.049
9.9551802 16.8095 195.27
10.1015 16.8267 195.47
10.2492 16.8458 195.692
10.3952 16.861799 195.877
10.5419 16.878201 196.06799
10.6911 16.898399 196.302
10.8411 16.919201 196.54401
10.9932 16.942699 196.817
11.1461 16.966999 197.099
11.3042 16.998301 197.463
11.4593 17.024599 197.76801
11.6171 17.0541 198.11099
-9.4640799 17.156099 197.696
-9.32092 17.145901 197.57899
-9.1775599 17.135099 197.45399
-9.0341597 17.1238 197.32401
-8.8921204 17.114799 197.22
-8.7506704 17.106701 197.127
-8.6096096 17.0991 197.039
-8.4691 17.0923 196.96201
-8.3276997 17.0835 196.86
-8.1856699 17.073099 196.74001
-8.0447903 17.0648 196.645
-7.9053302 17.059299 196.58099
-7.7663298 17.0546 196.52699
-7.6265898 17.048 196.451
-7.4868002 17.0411 196.37199
-7.3473802 17.0348 196.299
-7.20787 17.028099 196.22099
-7.0681 17.0205 196.133
-6.9288201 17.0137 196.056
-6.7907701 17.0098 196.00999
-6.6510601 17.001499 195.91499
-6.5103798 16.990299 195.785
-6.3704801 16.9807 195.675
-6.2312298 16.972401 195.58
-6.0918298 16.9634 195.476
-5.9533401 16.956499 195.396
-5.81423 16.9475 195.293
-5.53578 16.9275 195.062
-5.3971 16.918501 194.95799
-5.2579398 16.9074 194.83
-5.1198001 16.899099 194.735
-4.9816999 16.890499 194.636
-4.8429799 16.879299 194.507
-4.7049999 16.8701 194.39999
-4.5667801 16.8594 194.27699
-4.4292798 16.8508 194.179
-4.2915001 16.840599 194.061
-4.1542702 16.832001 193.961
-4.0170698 16.822901 193.856
-3.88041 16.815399 193.771
-3.74351 16.8064 193.66701
-3.6066699 16.7971 193.55901
-3.47036 16.789499 193.472
-3.33427 16.7824 193.39
-3.19783 16.7729 193.28101
-3.06164 16.763901 193.177
-2.92714 16.7638 193.17599
-2.79193 16.759501 193.12601
-2.65607 16.750601 193.02299
-2.38503 16.734501 192.838
-2.2492001 16.7227 192.702
-2.1138799 16.7134 192.595
-1.97878 16.7048 192.496
-1.70886 16.686199 192.28101
-1.57416 16.6772 192.17799
-1.3053 16.660801 191.98801
-1.17108 16.6527 191.895
-1.03695 16.643999 191.79601
-0.902897 16.6341 191.681
-0.76907599 16.625799 191.586
-0.635288 16.615 191.461
-0.50173497 16.606199 191.35899
-0.23511501 16.5928 191.205
-0.101987 16.589399 191.166
0.0310857 16.5851 191.117
0.29688299 16.5686 190.927
0.42963201 16.5623 190.854
0.56203997 16.548901 190.69901
0.69467503 16.546 190.666
0.82748002 16.547501 190.683
0.95996302 16.542999 190.631
1.09214 16.534901 190.539
1.22455 16.5317 190.50101
1.35676 16.526699 190.444
1.48856 16.5182 190.345
1.62095 16.517 190.332
1.75319 16.5145 190.30299
1.88506 16.509199 190.242
2.0165999 16.501801 190.157
2.1482601 16.4963 190.09399
2.27982 16.4907 190.02901
2.4119101 16.4893 190.013
2.5439899 16.4881 189.99899
2.6759601 16.4862 189.97701
2.80722 16.4804 189.91
2.9391899 16.479099 189.895
3.0706601 16.475201 189.85001
3.2030201 16.4762 189.862
3.3347001 16.473801 189.834
3.4669299 16.4741 189.838
3.599 16.473801 189.834
3.7314701 16.4751 189.85001
3.8636601 16.4753 189.851
3.99494 16.4716 189.80901
4.1273699 16.472799 189.82201
4.25915 16.471399 189.806
4.39148 16.472099 189.815
4.5238299 16.472799 189.823
4.65626 16.4739 189.83501
4.78755 16.4709 189.80099
4.9211302 16.4757 189.856
5.0549102 16.481001 189.91701
5.1891699 16.487499 189.992
5.3243899 16.4967 190.09801
5.4583702 16.5016 190.155
5.59411 16.5116 190.269
5.73034 16.5224 190.395
5.8646998 16.527599 190.45399
6.0002699 16.535801 190.549
6.1378498 16.549101 190.702
6.2749 16.5604 190.832
6.4123902 16.572399 190.97
6.5504498 16.5854 191.12
6.6894398 16.6001 191.289
6.8274899 16.612 191.427
6.9649801 16.622101 191.543
7.1050601 16.637899 191.72501
7.2442298 16.650999 191.87601
7.3853502 16.667999 192.07201
7.52314 16.677 192.17599
7.6627498 16.689699 192.32201
7.8027101 16.7027 192.472
7.9424701 16.714899 192.612
8.0824299 16.726999 192.752
8.2268696 16.7479 192.993
8.3689804 16.763399 193.172
8.5114098 16.7791 193.35201
8.6517897 16.7903 193.48199
8.7934103 16.8036 193.634
8.9374304 16.8209 193.834
9.0828896 16.840401 194.05901
9.2269602 16.8568 194.248
9.3719997 16.8745 194.452
9.5176001 16.8927 194.661
9.6637697 16.911301 194.87601
9.8078203 16.9258 195.043
9.9543505 16.944099 195.25301
10.101 16.962099 195.461
10.2492 16.9821 195.692
10.3944 16.996799 195.86099
10.5419 17.014799 196.069
10.6924 17.037201 196.326
10.8408 17.0557 196.539
10.9926 17.078899 196.80701
11.1477 17.1066 197.12601
11.305 17.1371 197.47701
11.4616 17.165701 197.80701
11.6198 17.1961 198.157
-9.6035099 17.297001 197.73399
-9.3174496 17.2771 197.506
-9.1735096 17.264999 197.367
-9.0301104 17.2535 197.23599
-8.8881102 17.2444 197.132
-8.6060305 17.229099 196.957
-8.4656496 17.2225 196.881
-8.1831102 17.2048 196.679
-8.0424004 17.196699 196.586
-7.9026799 17.1905 196.515
-7.7642798 17.186899 196.47501
-7.6247101 17.180599 196.403
-7.4850502 17.173901 196.326
-7.34513 17.1663 196.239
-7.2056699 17.1595 196.161
-7.06601 17.152 196.075
-6.9263101 17.1441 195.985
-6.7880402 17.1394 195.93201
-6.6484399 17.131201 195.83701
-6.3685699 17.111799 195.616
-6.2294002 17.1036 195.522
-6.0898499 17.094 195.412
-5.95123 17.086599 195.327
-5.81183 17.0765 195.21201
-5.6726899 17.0667 195.101
-5.5335202 17.0564 194.983
-5.3949299 17.0474 194.88
-5.2560701 17.037001 194.761
-5.1178799 17.0284 194.662
-4.97967 17.019199 194.55701
-4.8414102 17.009199 194.44299
-4.70364 17.0005 194.34399
-4.5652699 16.9891 194.213
-4.4276199 16.9797 194.106
-4.2898898 16.9694 193.98801
-4.1528001 16.9611 193.89301
-4.0158401 16.9527 193.797
-3.8794999 16.946501 193.726
-3.7427199 16.937799 193.62601
-3.60585 16.927999 193.515
-3.4695699 16.920401 193.42799
-3.33357 16.913601 193.35001
-3.1970301 16.903299 193.23199
-3.06076 16.8936 193.12199
-2.9259701 16.8916 193.099
-2.79093 16.887899 193.05701
-2.6551199 16.878901 192.95399
-2.51968 16.8715 192.869
-2.38416 16.8626 192.76801
-2.1133101 16.843 192.543
-1.97799 16.8321 192.41901
-1.84311 16.8237 192.32201
-1.7081701 16.813299 192.203
-1.4390301 16.7953 191.998
-1.3047 16.786699 191.899
-1.03645 16.7694 191.702
-0.90246898 16.759701 191.59
-0.76877201 16.752701 191.50999
-0.63506299 16.742399 191.39301
-0.501535 16.7328 191.283
-0.36823201 16.7264 191.21001
-0.23502301 16.7194 191.13
-0.10195 16.716499 191.097
0.031072401 16.7111 191.035
0.16398799 16.703501 190.94901
0.29677299 16.6954 190.856
0.42948899 16.689699 190.78999
0.56187302 16.6768 190.64301
0.69443899 16.673201 190.601
0.82715398 16.6737 190.608
0.95956099 16.6688 190.55099
1.0916899 16.660801 190.46001
1.22408 16.658001 190.42799
1.35627 16.6535 190.37601
1.48801 16.6446 190.27499
1.62043 16.644199 190.271
1.7526 16.641399 190.239
1.88466 16.638201 190.202
2.0159099 16.6285 190.091
2.1476099 16.623699 190.036
2.2789299 16.6166 189.95399
2.4107201 16.613501 189.92
2.54285 16.613001 189.91299
2.6751499 16.613501 189.92
2.8062 16.6066 189.841
2.93803 16.604799 189.82001
3.06955 16.6014 189.78101
3.2017701 16.601999 189.78799
3.3336401 16.6007 189.77299
3.46594 16.601601 189.784
3.5982299 16.6024 189.793
3.73019 16.6017 189.784
3.8622501 16.6014 189.78101
3.99352 16.5979 189.741
4.12537 16.596901 189.73
4.25701 16.5952 189.71001
4.38906 16.5952 189.71001
4.5215302 16.5966 189.72701
4.7851601 16.594801 189.70599
4.9184098 16.598801 189.752
5.18578 16.608999 189.868
5.3201599 16.6159 189.94701
5.4548898 16.623501 190.034
5.5898299 16.631399 190.12399
5.7261701 16.643 190.256
5.8608699 16.6493 190.32899
5.9963498 16.6576 190.424
6.1340899 16.6717 190.58501
6.2711 16.683201 190.717
6.4094 16.697701 190.881
6.6855798 16.7237 191.179
6.8238502 16.736401 191.325
6.9612598 16.746599 191.44099
7.10113 16.7621 191.619
7.23946 16.7736 191.74899
7.3807902 16.791401 191.953
7.5195198 16.802799 192.084
7.65943 16.816401 192.239
7.7988 16.8284 192.37601
7.9379902 16.8395 192.50301
8.0773096 16.850599 192.63
8.2226696 16.873699 192.894
8.3651695 16.890301 193.084
8.5082102 16.9074 193.28
8.6486702 16.919001 193.412
8.79111 16.934 193.584
8.93466 16.950701 193.774
9.0802298 16.9706 194.002
9.2254 16.9893 194.215
9.3712196 17.008499 194.435
9.5172396 17.027599 194.65401
9.6631098 17.0459 194.862
9.8070297 17.060301 195.02699
9.9535198 17.078699 195.237
10.1005 17.097401 195.451
10.2494 17.118799 195.696
10.3952 17.1346 195.877
10.5429 17.153 196.08701
10.841 17.192801 196.54201
10.9926 17.216 196.80701
11.1485 17.245199 197.14101
11.3063 17.2766 197.5
11.4643 17.3076 197.854
-9.8888798 17.452499 197.935
-9.7444401 17.440599 197.8
-9.6003304 17.429001 197.668
-9.4566402 17.417801 197.541
-9.3132496 17.406799 197.416
-9.1690903 17.393999 197.272
-9.0263004 17.383499 197.153
-8.8847103 17.375099 197.056
-8.7441902 17.368401 196.981
-8.60285 17.3599 196.88499
-8.4620504 17.352301 196.798
-8.3210297 17.343901 196.703
-8.1802502 17.335699 196.61
-8.0396099 17.3276 196.51801
-7.8996201 17.320601 196.439
-7.7620001 17.318701 196.41701
-7.6226702 17.312799 196.35001
-7.4829001 17.3057 196.269
-7.3430901 17.298201 196.18401
-7.2034502 17.2908 196.101
-7.0636401 17.282801 196.00999
-6.9238501 17.274401 195.91499
-6.7852802 17.2689 195.85201
-6.6456299 17.2603 195.755
-6.5055099 17.250099 195.63901
-6.3662801 17.241899 195.54601
-6.2272902 17.233999 195.45599
-6.0876799 17.2239 195.342
-5.9488301 17.215599 195.248
-5.6701899 17.195 195.015
-5.5314298 17.185699 194.909
-5.3928099 17.176399 194.80299
-5.2540798 17.166201 194.688
-5.1157999 17.157 194.58299
-4.9777598 17.1481 194.48199
-4.8397498 17.1388 194.377
-4.70192 17.129601 194.27299
-4.56392 17.119301 194.15601
-4.4260402 17.108801 194.036
-4.2885299 17.0991 193.927
-4.1515002 17.090799 193.832
-4.0146399 17.0825 193.739
-3.87834 17.0763 193.668
-3.7416201 17.0676 193.57001
-3.60501 17.058901 193.47
-3.46874 17.051001 193.381
-3.33268 17.043699 193.298
-3.0599999 17.023899 193.07401
-2.9249001 17.019899 193.028
-2.7899699 17.0165 192.99001
-2.65414 17.007099 192.883
-2.5186801 16.999001 192.79201
-2.38341 16.991501 192.707
-2.24787 16.9811 192.588
-2.11285 16.973499 192.502
-1.84234 16.9505 192.242
-1.70744 16.939899 192.121
-1.57271 16.9293 192
-1.43832 16.9207 191.903
-1.30408 16.9123 191.808
-1.17002 16.904699 191.722
-1.03596 16.8951 191.612
-0.76846898 16.8794 191.435
-0.63485003 16.8701 191.32899
-0.50135601 16.860001 191.215
-0.36807501 16.8524 191.12801
-0.23491099 16.8445 191.039
-0.1019 16.8414 191.004
0.031058701 16.8367 190.951
0.163922 16.8298 190.87199
0.29665801 16.821899 190.783
0.56170601 16.804501 190.586
0.69418198 16.7997 190.53101
0.826832 16.7999 190.534
1.0913301 16.7878 190.396
1.22363 16.7845 190.35899
1.35585 16.7808 190.31599
1.6198601 16.7708 190.203
1.75196 16.767799 190.17
1.88405 16.7652 190.13901
2.01512 16.7544 190.017
2.1468599 16.7502 189.96899
2.27823 16.7437 189.896
2.4098301 16.739599 189.849
2.5418501 16.738701 189.839
2.6740799 16.7391 189.84399
2.80512 16.7325 189.76801
2.9370401 16.7314 189.756
3.0685799 16.7283 189.72099
3.20029 16.7264 189.7
3.3324399 16.7269 189.705
3.4644699 16.7267 189.703
3.5970099 16.728901 189.729
3.7284901 16.7262 189.698
3.86063 16.726601 189.702
3.99173 16.722601 189.65601
4.2549801 16.7194 189.62
4.38695 16.719299 189.619
4.51896 16.719299 189.619
4.65132 16.7206 189.633
4.7827301 16.7185 189.61
4.91538 16.720699 189.63499
5.0479698 16.722601 189.65601
5.1824398 16.730499 189.746
5.3155999 16.733801 189.784
5.4511299 16.744301 189.903
5.5859499 16.752199 189.992
5.7222099 16.763901 190.125
5.8571901 16.7714 190.21001
5.9924998 16.779499 190.302
6.1297498 16.792601 190.45
6.26721 16.805599 190.59801
6.4056101 16.820601 190.76801
6.54321 16.833 190.909
6.6812901 16.846001 191.05701
6.81988 16.8598 191.213
6.9570799 16.869801 191.326
7.0969601 16.8857 191.506
7.2351899 16.8972 191.636
7.3757601 16.913601 191.82201
7.5153699 16.9272 191.978
7.79422 16.9524 192.263
7.9339199 16.964899 192.405
8.0735197 16.976801 192.53999
8.2176199 16.997601 192.776
8.3606396 17.0156 192.979
8.5049801 17.035601 193.20599
8.6458197 17.0481 193.34801
8.7885704 17.0639 193.528
8.9315996 17.0798 193.70799
9.0772104 17.1001 193.938
9.2223501 17.1189 194.151
9.3705902 17.142799 194.422
9.5159302 17.160801 194.627
9.6616602 17.179001 194.83299
9.8052197 17.1929 194.991
9.9520502 17.212099 195.20799
10.1001 17.232901 195.444
10.2478 17.252399 195.66499
10.3942 17.2693 195.85699
10.5403 17.2854 196.039
10.6935 17.312401 196.34599
10.8414 17.3304 196.549
10.9947 17.3564 196.84399
11.1498 17.384501 197.164
11.3089 17.418301 197.54601
11.4645 17.4457 197.85699
-9.7399502 17.570299 197.709
-9.5966597 17.559999 197.592
-9.4522104 17.547199 197.448
-9.3085499 17.5355 197.317
-9.1650105 17.523701 197.18401
-9.02244 17.513399 197.06799
-8.8811903 17.5054 196.978
-8.7405005 17.498199 196.89799
-8.5997295 17.4907 196.813
-8.4587603 17.4825 196.72099
-8.3179598 17.4744 196.63
-8.1772499 17.466299 196.53799
-8.0368605 17.4585 196.451
-7.8968401 17.4513 196.37
-7.7592702 17.4494 196.34801
-7.6203198 17.444201 196.28999
-7.4802599 17.436199 196.2
-7.3404398 17.428499 196.114
-7.2006602 17.4207 196.02499
-7.0605502 17.411699 195.924
-6.9212399 17.404301 195.841
-6.7827702 17.398899 195.78
-6.5031199 17.379999 195.567
-6.36377 17.371201 195.46899
-6.2247701 17.3631 195.377
-6.08533 17.3533 195.267
-5.9461398 17.3438 195.16
-5.80654 17.3326 195.035
-5.6677299 17.3234 194.92999
-5.3906698 17.305201 194.726
-5.2519698 17.294901 194.60899
-5.1138 17.2857 194.507
-4.97575 17.2766 194.40401
-4.8379998 17.2679 194.306
-4.70015 17.258499 194.2
-4.5623298 17.248501 194.088
-4.2873802 17.2295 193.87399
-4.1501899 17.220301 193.771
-4.01331 17.2118 193.675
-3.87714 17.2059 193.608
-3.7404201 17.196899 193.507
-3.6040299 17.1889 193.41701
-3.4678299 17.1812 193.33099
-3.33182 17.173901 193.248
-3.1951201 17.162201 193.117
-3.0592401 17.1542 193.026
-2.9239199 17.1486 192.964
-2.78899 17.145 192.923
-2.65312 17.1348 192.808
-2.5175099 17.125401 192.702
-2.24683 17.1073 192.49899
-2.1117301 17.098499 192.399
-1.97654 17.087601 192.27699
-1.84155 17.077101 192.159
-1.57198 17.055099 191.912
-1.43765 17.046499 191.815
-1.30346 17.0378 191.717
-1.16947 17.030199 191.632
-1.03558 17.0222 191.54201
-0.90178502 17.0137 191.44501
-0.768116 17.0049 191.347
-0.63460797 16.996901 191.256
-0.50118399 16.987301 191.149
-0.36793199 16.978901 191.054
-0.23480999 16.970301 190.957
-0.101853 16.966499 190.91499
0.0310458 16.9627 190.871
0.16385899 16.9562 190.799
0.29655001 16.948601 190.713
0.42918801 16.9436 190.65601
0.56156701 16.9331 190.539
0.69400001 16.927999 190.481
0.82651001 16.926001 190.459
0.95886302 16.9219 190.41299
1.09097 16.9149 190.334
1.22305 16.9091 190.269
1.3552099 16.905399 190.228
1.48692 16.897301 190.13499
1.61917 16.896099 190.12199
1.7512701 16.8937 190.095
1.88323 16.890301 190.05701
2.0143399 16.880199 189.94299
2.1461 16.876499 189.90199
2.2776599 16.871799 189.849
2.40891 16.8654 189.77699
2.5408299 16.8641 189.76199
2.6728799 16.8638 189.758
2.8041101 16.858601 189.7
2.9359701 16.857401 189.687
3.06762 16.8552 189.662
3.19889 16.8512 189.617
3.3310001 16.8517 189.623
3.46279 16.8507 189.61099
3.59533 16.853201 189.64
3.7263899 16.8489 189.591
3.8589399 16.851299 189.619
3.99002 16.847401 189.575
4.1217899 16.8466 189.565
4.2533302 16.8449 189.547
4.38486 16.8433 189.528
4.5168099 16.8433 189.52901
4.6491499 16.844801 189.545
4.7802901 16.8419 189.513
4.9125299 16.843 189.52499
5.04456 16.8433 189.528
5.1781402 16.8486 189.588
5.3117099 16.853701 189.645
5.44701 16.8638 189.759
5.7178602 16.883499 189.98
5.8537202 16.8939 190.097
5.98842 16.900499 190.172
6.1249399 16.9119 190.30099
6.2620602 16.9245 190.442
6.4001598 16.9391 190.606
6.5383801 16.9534 190.767
6.67624 16.966299 190.912
6.8150401 16.981001 191.077
6.9521298 16.9909 191.189
7.09198 17.007099 191.37199
7.2298899 17.0182 191.496
7.36975 17.0333 191.666
7.5097799 17.0483 191.83501
7.6493802 17.0618 191.987
7.7891898 17.0753 192.13901
7.9288502 17.087999 192.282
8.0692196 17.101801 192.437
8.2125196 17.1213 192.65601
8.3556299 17.1397 192.864
8.5004396 17.160999 193.103
8.6428699 17.176901 193.282
8.7852602 17.1922 193.455
8.9294205 17.210501 193.66
9.0747004 17.2304 193.884
9.2197905 17.2493 194.097
9.36798 17.273399 194.368
9.5140305 17.2929 194.588
9.6594601 17.310801 194.789
9.8036003 17.325899 194.959
9.9491596 17.343 195.15199
10.0979 17.365299 195.40199
10.2472 17.3876 195.653
10.3925 17.403 195.826
10.538 17.4181 195.996
10.6928 17.448 196.33299
10.8417 17.4678 196.556
10.9955 17.494801 196.85899
11.1509 17.5236 197.18401
11.3105 17.5583 197.57401
11.4689 17.5903 197.93401
-10.0274 17.729601 197.95
-9.8818703 17.7157 197.795
-9.7374001 17.7034 197.657
-9.5932903 17.691401 197.52299
-9.4489202 17.678499 197.38
-9.3053102 17.6667 197.248
-9.1622496 17.655701 197.125
-9.0194597 17.6448 197.00301
-8.8781796 17.6366 196.911
-8.7373505 17.629 196.827
-8.59764 17.623501 196.765
-8.45644 17.6147 196.66701
-8.3155203 17.606199 196.57201
-8.1750002 17.598301 196.48399
-8.0344296 17.59 196.39101
-7.8945899 17.583099 196.314
-7.7564802 17.5798 196.27699
-7.6179399 17.575399 196.228
-7.4778399 17.5672 196.13699
-7.3379698 17.5592 196.048
-7.1980801 17.5509 195.955
-7.0578098 17.5413 195.84801
-6.9186502 17.534201 195.76801
-6.7805901 17.5296 195.717
-6.6405602 17.5196 195.605
-6.5009899 17.5105 195.50301
-6.3615599 17.501301 195.401
-6.22258 17.493 195.308
-6.08321 17.4832 195.19901
-5.9437299 17.472601 195.08099
-5.8043799 17.462 194.96201
-5.6655998 17.4526 194.85699
-5.5271802 17.4438 194.759
-5.3885598 17.434 194.649
-5.2502398 17.4247 194.545
-5.1118498 17.4146 194.433
-4.9739099 17.4055 194.332
-4.6986399 17.3881 194.13699
-4.5608602 17.378099 194.02499
-4.4235301 17.3692 193.92599
-4.2864699 17.360901 193.83299
-4.14884 17.349701 193.70799
-4.0118599 17.340401 193.605
-3.87587 17.334999 193.54401
-3.7391901 17.326 193.444
-3.6029799 17.3186 193.36099
-3.4667699 17.3106 193.271
-3.3308799 17.3036 193.194
-3.1942301 17.291901 193.063
-3.05847 17.2843 192.978
-2.92295 17.2773 192.89999
-2.7878201 17.2721 192.842
-2.6519101 17.261299 192.72099
-2.51634 17.2516 192.61301
-2.38147 17.246 192.55
-2.24595 17.2346 192.423
-1.97567 17.214001 192.19299
-1.84075 17.203501 192.076
-1.70604 17.193399 191.963
-1.57133 17.1817 191.832
-1.30294 17.1646 191.64101
-1.1689301 17.1558 191.543
-0.90141797 17.139999 191.367
-0.76775599 17.130199 191.257
-0.50102198 17.115 191.08701
-0.36779299 17.105499 190.98199
-0.234717 17.0965 190.881
-0.101815 17.093201 190.84399
0.0310353 17.089899 190.80701
0.163789 17.0818 190.718
0.29642701 17.074301 190.634
0.42901301 17.069401 190.57899
0.561405 17.0609 190.48399
0.69379002 17.0555 190.423
0.826213 17.052601 190.39101
0.95855302 17.049 190.351
1.0905401 17.0408 190.259
1.48629 17.022499 190.05499
1.61842 17.0207 190.035
1.75056 17.0191 190.01801
1.88226 17.013901 189.959
2.0137801 17.007799 189.89101
2.1454501 17.0037 189.845
2.2771001 16.999901 189.802
2.4081299 16.9921 189.715
2.53985 16.9897 189.689
2.67188 16.989599 189.687
2.8032401 16.985399 189.64101
2.93521 16.9851 189.63699
3.06675 16.9825 189.608
3.1976299 16.9765 189.54201
3.32972 16.977301 189.55
3.46121 16.975 189.52499
3.59373 16.977699 189.55499
3.72489 16.9741 189.515
3.8571301 16.975401 189.53
3.9881699 16.9716 189.487
4.1197 16.969999 189.46899
4.25138 16.9692 189.46001
4.3826399 16.9667 189.43201
4.5146699 16.9673 189.439
4.6469302 16.9687 189.45399
4.7781501 16.966299 189.42799
4.9102898 16.967199 189.438
5.3083301 16.974899 189.524
5.4436402 16.9855 189.642
5.57762 16.9914 189.70799
5.7133899 17.002501 189.83099
5.8501501 17.0159 189.981
5.9846501 17.022301 190.05299
6.11976 17.0301 190.14
6.3947902 17.057501 190.446
6.5331702 17.072701 190.616
6.6711702 17.0863 190.767
6.8094802 17.1001 190.922
7.08602 17.125999 191.211
7.22469 17.1392 191.358
7.3635201 17.1523 191.504
7.5029001 17.166201 191.659
7.64288 17.180901 191.82401
7.7834001 17.196301 191.996
7.9222698 17.2076 192.12199
8.0635099 17.2237 192.30099
8.2071896 17.244301 192.53101
8.3501301 17.262699 192.737
8.4952297 17.284901 192.985
8.6373501 17.300501 193.159
8.7795696 17.3158 193.32899
8.9253597 17.3375 193.57201
9.0708599 17.358101 193.802
9.2165003 17.3783 194.028
9.3631001 17.3997 194.267
9.5101299 17.421301 194.508
9.6568203 17.4417 194.73599
9.80231 17.4594 194.933
9.9476604 17.476299 195.12199
10.0972 17.5 195.38699
10.247 17.523701 195.651
10.3931 17.5403 195.83701
10.5389 17.556101 196.013
10.6925 17.5844 196.32899
10.8418 17.604799 196.556
10.9968 17.6339 196.882
11.1519 17.6625 197.201
11.3118 17.697901 197.59599
11.4727 17.733999 197.99899
-10.0234 17.8603 197.87
-9.8783302 17.847099 197.724
-9.7337704 17.8344 197.58299
-9.5892696 17.821501 197.44
-9.4458504 17.8102 197.31599
-9.3028898 17.7995 197.19701
-9.1596899 17.788 197.069
-9.0164604 17.7761 196.938
-8.8755703 17.768499 196.854
-8.7351398 17.7616 196.77699
-8.5956402 17.756399 196.72
-8.4543104 17.7472 196.618
-8.3132496 17.7383 196.519
-8.1729002 17.7306 196.43401
-8.03232 17.7222 196.34
-7.8922701 17.7146 196.256
-7.7540002 17.7108 196.215
-7.61554 17.706499 196.166
-7.4754601 17.6982 196.07401
-7.3356299 17.6901 195.985
-7.1953201 17.680599 195.88
-7.05547 17.6719 195.783
-6.9163299 17.6646 195.702
-6.6382799 17.649799 195.53799
-6.4988499 17.6408 195.439
-6.35958 17.631901 195.34
-6.2206402 17.623501 195.24699
-6.0812302 17.6134 195.13499
-5.94173 17.6026 195.015
-5.8028698 17.593201 194.911
-5.5252299 17.573299 194.69099
-5.38691 17.564199 194.59
-5.2488799 17.555599 194.495
-5.1104898 17.5453 194.381
-4.9723601 17.5354 194.271
-4.8345599 17.526199 194.16901
-4.6969399 17.517 194.067
-4.55967 17.508699 193.97501
-4.42237 17.499701 193.87601
-4.2852201 17.490801 193.77699
-4.14745 17.478701 193.64301
-4.01057 17.4697 193.543
-3.87482 17.465099 193.492
-3.7379301 17.454901 193.379
-3.6017699 17.447399 193.29601
-3.4653001 17.437799 193.19
-3.1933601 17.4217 193.011
-3.05739 17.4125 192.91
-2.9218199 17.405001 192.826
-2.7865901 17.398701 192.756
-2.6508999 17.3888 192.647
-2.5155499 17.380301 192.55299
-2.38046 17.3727 192.468
-2.2449701 17.361099 192.34
-2.1099999 17.352301 192.242
-1.97491 17.3412 192.119
-1.70541 17.320801 191.89301
-1.57082 17.309601 191.77
-1.43657 17.3006 191.67
-1.30247 17.2918 191.57201
-1.16848 17.282499 191.46899
-1.03477 17.275499 191.39101
-0.90107298 17.266701 191.29401
-0.76753801 17.258499 191.203
-0.63413602 17.250401 191.114
-0.50083601 17.241699 191.01601
-0.36765999 17.2323 190.912
-0.23465 17.224501 190.827
-0.101768 17.218201 190.756
0.031021301 17.215 190.72099
0.29630801 17.200199 190.55701
0.42879799 17.193501 190.483
0.56119603 17.187201 190.41299
0.69347298 17.1803 190.336
0.82592303 17.1791 190.32401
0.95826 17.1763 190.293
1.09013 17.166901 190.189
1.2219599 17.1588 190.09801
1.35425 17.1583 190.093
1.4857301 17.148399 189.983
1.61779 17.146299 189.96001
1.74979 17.1439 189.93401
1.8817199 17.1413 189.905
2.01314 17.1346 189.83099
2.1449399 17.1318 189.8
2.27637 17.1266 189.742
2.4074099 17.119101 189.659
2.53912 17.116899 189.63499
2.67084 17.115 189.614
2.80249 17.1129 189.59
2.9341199 17.110901 189.56799
3.0657899 17.1092 189.549
3.3286901 17.104 189.492
3.46018 17.1019 189.468
3.59218 17.1024 189.474
3.72311 17.0979 189.424
3.85533 17.099501 189.44099
3.98597 17.0942 189.383
4.1176901 17.0937 189.377
4.24894 17.091299 189.351
4.3803401 17.089701 189.33299
4.6437802 17.0891 189.326
4.7757201 17.0896 189.332
4.9072099 17.088499 189.32001
5.0392299 17.089199 189.328
5.17134 17.0903 189.339
5.3039198 17.0928 189.367
5.5740199 17.112499 189.586
5.7086902 17.1206 189.675
5.8452501 17.133801 189.82201
6.1143999 17.147499 189.97301
6.25175 17.161501 190.12801
6.5273299 17.1901 190.44501
6.6646299 17.202299 190.58
6.8032799 17.2174 190.748
6.94031 17.2279 190.864
7.2177701 17.255899 191.175
7.35532 17.266399 191.291
7.6361299 17.2992 191.65401
7.7768998 17.315599 191.83501
7.91675 17.329399 191.98801
8.0577898 17.345301 192.16499
8.2008495 17.364901 192.382
8.3437796 17.383699 192.59
8.48981 17.408199 192.862
8.6305599 17.421301 193.007
8.7750797 17.4415 193.231
8.9207697 17.4634 193.47301
9.0673199 17.4862 193.726
9.2121401 17.505199 193.936
9.3576803 17.5249 194.15401
9.6540804 17.572399 194.67999
9.8010101 17.5928 194.907
9.94625 17.6098 195.095
10.0951 17.632601 195.34801
10.2449 17.6562 195.60899
10.393 17.6766 195.83501
10.5406 17.695601 196.04601
10.6933 17.722401 196.342
10.8438 17.7449 196.592
10.9978 17.772699 196.89999
11.1532 17.801901 197.224
11.313 17.8374 197.617
11.4758 17.876699 198.052
-10.1655 18.0058 197.95399
-10.0197 17.9916 197.798
-9.8747702 17.9783 197.65199
-9.7302198 17.9655 197.511
-9.58535 17.9517 197.36
-9.4424105 17.941099 197.244
-9.3000097 17.931299 197.136
-9.15697 17.92 197.011
-9.0141497 17.908701 196.88699
-8.8735104 17.901501 196.808
-8.7331896 17.894699 196.733
-8.5933104 17.888599 196.666
-8.4520998 17.879499 196.56599
-8.3109398 17.870199 196.464
-8.1706495 17.862499 196.379
-8.0300798 17.853901 196.285
-7.8896399 17.8454 196.19099
-7.6126499 17.836399 196.092
-7.4730101 17.828899 196.00999
-7.3330898 17.820499 195.91701
-7.1926799 17.810499 195.808
-7.0529299 17.8018 195.71201
-6.91395 17.7948 195.63499
-6.77529 17.7883 195.564
-6.6363001 17.780701 195.48
-6.4969101 17.771601 195.38
-6.3576899 17.762699 195.282
-6.21837 17.753 195.17599
-6.07901 17.742901 195.064
-5.9396801 17.7323 194.948
-5.8011699 17.723801 194.854
-5.6621399 17.7132 194.73801
-5.5236602 17.703899 194.63499
-5.38557 17.695299 194.541
-5.2472901 17.685699 194.436
-5.1090002 17.6756 194.32401
-4.9710498 17.6661 194.22
-4.83319 17.656401 194.11301
-4.6956801 17.647499 194.015
-4.5584002 17.638901 193.92101
-4.42103 17.6294 193.817
-4.28373 17.619699 193.71001
-4.1463199 17.608801 193.59
-4.0093298 17.599001 193.483
-3.8734601 17.5937 193.424
-3.7365301 17.583 193.306
-3.6003599 17.575199 193.22
-3.4640701 17.566099 193.121
-3.3283401 17.559401 193.047
-3.1923499 17.5506 192.95
-3.05652 17.541901 192.854
-2.92103 17.5345 192.77299
-2.7855999 17.526699 192.688
-2.6498899 17.516399 192.57401
-2.51458 17.5077 192.478
-2.37942 17.4991 192.384
-2.1092 17.4795 192.16901
-1.97427 17.469299 192.05701
-1.83927 17.457001 191.922
-1.7048301 17.4484 191.827
-1.43602 17.4275 191.597
-1.3019 17.417601 191.48801
-1.16802 17.409 191.39301
-1.03431 17.4011 191.30701
-0.900792 17.394501 191.23399
-0.76730901 17.386499 191.146
-0.63393003 17.377899 191.052
-0.50067002 17.3689 190.953
-0.36751899 17.358601 190.84
-0.234558 17.350599 190.75101
-0.101728 17.344101 190.681
0.031010199 17.3416 190.653
0.163663 17.3342 190.571
0.29617 17.3249 190.46899
0.428608 17.318501 190.399
0.56098402 17.313299 190.341
0.693178 17.3055 190.255
0.82558799 17.304701 190.24699
0.95787501 17.301901 190.216
1.22155 17.2854 190.035
1.35378 17.284599 190.026
1.48522 17.274799 189.918
1.7490799 17.2693 189.85699
1.88111 17.268 189.843
2.01249 17.2612 189.769
2.1442499 17.258499 189.739
2.2757399 17.253901 189.689
2.40677 17.246599 189.608
2.5383201 17.243601 189.575
2.66996 17.2414 189.552
2.8015599 17.239201 189.52699
2.9328899 17.235701 189.48801
3.0644801 17.233801 189.468
3.1953499 17.2283 189.407
3.3272901 17.228701 189.412
3.45873 17.226601 189.38901
3.59058 17.2267 189.38901
3.72122 17.2211 189.328
3.8534701 17.223101 189.35001
3.9841399 17.2181 189.295
4.1160002 17.2185 189.299
4.2467499 17.2143 189.254
4.3783698 17.2138 189.248
4.51015 17.214001 189.24899
4.6413002 17.2117 189.22501
4.7733102 17.2127 189.23599
4.9047298 17.211599 189.224
5.0370698 17.213699 189.24699
5.16855 17.212799 189.237
5.3001599 17.2124 189.233
5.4349198 17.222 189.338
5.5702801 17.233 189.459
5.70435 17.239599 189.53101
5.83988 17.2502 189.64799
5.9749498 17.259001 189.744
6.1092501 17.2652 189.813
6.2463598 17.278999 189.964
6.3833399 17.2918 190.105
6.5211701 17.3064 190.26601
6.6571398 17.3155 190.366
6.79533 17.33 190.52499
7.0722599 17.358601 190.84
7.2100701 17.370501 190.97099
7.4860001 17.3939 191.22701
7.7681098 17.429501 191.619
8.0515203 17.4655 192.015
8.19415 17.4846 192.22501
8.3371897 17.504 192.438
8.4825802 17.527599 192.69701
8.6239204 17.5422 192.858
8.7697401 17.565399 193.11301
8.9148903 17.5865 193.345
9.0619802 17.6108 193.612
9.2067499 17.6299 193.82201
9.5011797 17.6756 194.325
9.6514597 17.703199 194.62801
9.7988596 17.724701 194.864
9.9441299 17.7418 195.05299
10.0939 17.766399 195.323
10.2435 17.7901 195.58299
10.3922 17.8116 195.819
10.5407 17.8323 196.047
10.6949 17.8619 196.373
10.8464 17.8862 196.63901
11.0003 17.9139 196.944
11.156 17.943899 197.274
11.3179 17.982901 197.703
-10.1631 18.1394 197.908
-10.0167 18.123899 197.739
-9.8707895 18.1087 197.573
-9.72647 18.0961 197.435
-9.5826998 18.084101 197.30499
-9.4399405 18.073799 197.192
-9.2974596 18.0637 197.082
-9.1547604 18.052799 196.963
-9.0125704 18.0427 196.853
-8.8717098 18.034901 196.76801
-8.7309999 18.027201 196.68401
-8.5909595 18.0207 196.61301
-8.4498396 18.0116 196.51401
-8.3086596 18.0021 196.41
-8.1686401 17.9949 196.33099
-8.0279999 17.986 196.23399
-7.8874798 17.9771 196.13699
-7.74824 17.9708 196.069
-7.60957 17.9657 196.013
-7.4703999 17.959101 195.94099
-7.3306298 17.950899 195.85201
-7.19069 17.9419 195.754
-7.0510302 17.9333 195.66
-6.9120898 17.926201 195.582
-6.7732 17.919001 195.50301
-6.6344299 17.9118 195.425
-6.3553901 17.8922 195.211
-6.21593 17.882 195.099
-6.0768199 17.872299 194.994
-5.9376502 17.862 194.882
-5.79917 17.8533 194.787
-5.66048 17.843599 194.681
-5.5223198 17.8351 194.588
-5.3840799 17.825899 194.48801
-5.2456598 17.815599 194.37601
-5.1073999 17.8053 194.263
-4.9695401 17.796 194.161
-4.8318601 17.786699 194.06
-4.6943698 17.777599 193.961
-4.55689 17.768101 193.85699
-4.4196801 17.759001 193.758
-4.28227 17.748501 193.64301
-4.1451702 17.738701 193.536
-4.0078702 17.727301 193.412
-3.7351601 17.7111 193.23599
-3.59905 17.7033 193.14999
-3.46292 17.694799 193.05701
-3.3271201 17.6873 192.976
-3.1912 17.6786 192.88
-2.9202099 17.663799 192.71899
-2.7846501 17.6549 192.62199
-2.6489799 17.6444 192.508
-2.51355 17.634501 192.39999
-2.3783801 17.625401 192.3
-2.2432001 17.615101 192.187
-2.10848 17.607401 192.103
-1.97367 17.597799 191.99899
-1.83863 17.5846 191.855
-1.70424 17.576 191.761
-1.5698 17.565399 191.646
-1.4355201 17.5548 191.53
-1.16755 17.535299 191.317
-1.0339299 17.527901 191.237
-0.90043098 17.5207 191.158
-0.76700801 17.5128 191.071
-0.63366997 17.503799 190.97301
-0.50048298 17.495399 190.882
-0.36739099 17.485399 190.77299
-0.234466 17.476601 190.677
-0.101686 17.469801 190.603
0.030997301 17.4671 190.573
0.16360401 17.4606 190.502
0.29605299 17.4506 190.39301
0.56074899 17.438499 190.261
0.69291598 17.4314 190.183
0.82524401 17.43 190.168
0.95748198 17.427299 190.138
1.08938 17.419901 190.058
1.22118 17.4125 189.97701
1.35334 17.411301 189.965
1.4849 17.403299 189.877
1.61649 17.3969 189.80701
1.74856 17.396299 189.8
1.88044 17.393999 189.77499
2.0120201 17.3894 189.72501
2.14358 17.385201 189.679
2.2751601 17.381701 189.64101
2.4061699 17.3743 189.561
2.5376899 17.3713 189.528
2.6691401 17.368099 189.493
2.80074 17.366199 189.472
2.93185 17.3615 189.42
3.0632501 17.358801 189.392
3.1940899 17.353399 189.332
3.3257 17.3524 189.321
3.45717 17.3507 189.304
3.5888801 17.350401 189.299
3.7195699 17.345301 189.244
3.8512299 17.3449 189.24001
3.98226 17.341801 189.20599
4.1139998 17.3419 189.207
4.24507 17.3393 189.17799
4.3763099 17.3375 189.159
4.5076299 17.3361 189.144
4.6389699 17.334801 189.13
4.7706599 17.3349 189.131
4.9022298 17.3346 189.127
5.0346799 17.337299 189.157
5.1658301 17.335501 189.138
5.29774 17.3363 189.146
5.4312501 17.342199 189.21001
5.5654702 17.35 189.295
5.6998301 17.357901 189.381
5.8349199 17.3675 189.48599
5.9697399 17.375999 189.57899
6.10356 17.3813 189.636
6.2393699 17.3918 189.752
6.3762798 17.405001 189.895
6.5139499 17.4196 190.05499
6.6493802 17.427799 190.144
6.7866201 17.4403 190.28101
6.9249001 17.455 190.44
7.0634098 17.469601 190.601
7.2018299 17.483601 190.75301
7.3392501 17.4946 190.873
7.4772401 17.506599 191.004
7.6178298 17.524099 191.19501
7.7593398 17.5431 191.40199
7.9006801 17.5611 191.599
8.0417995 17.577999 191.783
8.1847897 17.5984 192.006
8.3305702 17.624001 192.285
8.4740105 17.643999 192.50301
8.61654 17.6614 192.69299
8.9074602 17.7064 193.18401
9.0538797 17.729799 193.439
9.1988401 17.749701 193.65601
9.3491096 17.7791 193.97701
9.4964399 17.802099 194.228
9.6463699 17.8293 194.52499
9.9417295 17.8734 195.006
10.092 17.899099 195.286
10.2427 17.9249 195.56799
10.3911 17.9461 195.799
10.5404 17.9683 196.041
10.6956 17.9998 196.38499
10.8484 18.026501 196.67599
11.0029 18.055401 196.991
11.1601 18.0879 197.347
11.3227 18.1283 197.787
-10.4548 18.305599 198.215
-10.3073 18.2887 198.032
-10.1609 18.2733 197.866
-10.0144 18.257401 197.69299
-9.8678904 18.2409 197.515
-9.7239504 18.228901 197.384
-9.5809803 18.2183 197.27
-9.4384298 18.2082 197.161
-9.2960396 18.1982 197.052
-9.1536503 18.187799 196.94
-9.01157 18.177799 196.83099
-8.8702497 18.169001 196.735
-8.7291803 18.1604 196.64301
-8.5889797 18.1534 196.567
-8.4476805 18.143801 196.463
-8.3064203 18.134001 196.35699
-8.1666403 18.127199 196.283
-8.0263395 18.1189 196.194
-7.7463198 18.1029 196.02
-7.6073399 18.096901 195.955
-7.4678402 18.089399 195.87399
-7.3283501 18.081699 195.791
-7.1886802 18.0732 195.69901
-7.0492101 18.064899 195.60899
-6.9102802 18.057699 195.53101
-6.77145 18.050501 195.453
-6.6325002 18.0427 195.368
-6.4930401 18.0331 195.26401
-6.35357 18.023001 195.155
-6.2143002 18.0131 195.048
-6.0752401 18.003401 194.94299
-5.9361901 17.993299 194.834
-5.65909 17.9748 194.633
-5.52108 17.9666 194.54401
-5.3826499 17.9566 194.436
-5.2442498 17.946199 194.323
-5.10603 17.935801 194.211
-4.9682002 17.926399 194.10899
-4.83044 17.916599 194.00301
-4.6932502 17.9084 193.91499
-4.5556402 17.898199 193.80299
-4.41854 17.889299 193.70799
-4.2811699 17.878799 193.59399
-4.1440301 17.868601 193.483
-4.0065298 17.8561 193.34801
-3.87043 17.849199 193.27299
-3.73384 17.839399 193.16701
-3.5976701 17.830999 193.076
-3.4616699 17.8228 192.987
-3.3259699 17.815599 192.909
-3.1901901 17.807301 192.819
-3.05459 17.799299 192.733
-2.9192901 17.7924 192.658
-2.78374 17.7833 192.55901
-2.64821 17.7733 192.452
-2.5126801 17.7623 192.33299
-2.3773201 17.7514 192.214
-2.2422299 17.741301 192.104
-2.1076 17.7337 192.02299
-1.97299 17.7253 191.93201
-1.83803 17.7124 191.79201
-1.70367 17.7036 191.69701
-1.56934 17.693701 191.59
-1.4350899 17.683001 191.47301
-1.30097 17.6717 191.351
-1.1672 17.6632 191.259
-1.03355 17.6546 191.166
-0.90006697 17.6467 191.08
-0.76670498 17.638901 190.995
-0.63345301 17.6308 190.908
-0.50029999 17.621901 190.812
-0.36727899 17.6129 190.715
-0.234382 17.603201 190.60899
-0.101646 17.5956 190.528
0.030984299 17.592501 190.494
0.163543 17.5867 190.431
0.42828801 17.570601 190.257
0.56052399 17.563999 190.185
0.69267499 17.5578 190.117
0.82494402 17.556 190.099
1.0890599 17.5471 190.00101
1.22078 17.539101 189.91499
1.35279 17.536501 189.88699
1.48448 17.5306 189.82401
1.61604 17.5243 189.755
1.7480201 17.523001 189.741
1.8797801 17.52 189.709
2.01162 17.518101 189.688
2.2744501 17.5082 189.58099
2.4054899 17.5014 189.507
2.53708 17.4991 189.48199
2.6683199 17.494699 189.435
2.7999201 17.493 189.41701
2.93097 17.4881 189.364
3.06248 17.486401 189.34399
3.1931801 17.480301 189.278
3.3241799 17.4762 189.235
3.4555299 17.4743 189.214
3.5873401 17.474701 189.218
3.7181001 17.4702 189.16901
3.8493099 17.468 189.145
3.98018 17.4645 189.10699
4.1117301 17.4641 189.103
4.24335 17.464001 189.10201
4.3741398 17.4606 189.065
4.5051799 17.4583 189.041
4.6364398 17.4571 189.02699
4.7679801 17.4569 189.02499
4.8996401 17.4571 189.028
5.03194 17.4596 189.054
5.1634598 17.459299 189.05099
5.29561 17.4611 189.07001
5.4282398 17.4643 189.105
5.6946201 17.473801 189.20799
5.829 17.4818 189.29401
5.96381 17.490601 189.39101
6.0974302 17.4958 189.446
6.2323399 17.5042 189.53799
6.3694 17.518299 189.69
6.5054498 17.5291 189.80701
6.6407599 17.5375 189.89799
6.7778602 17.5502 190.035
6.9158201 17.5646 190.19099
7.19242 17.593399 190.50301
7.32863 17.601999 190.597
7.6076198 17.6336 190.939
7.7499499 17.655001 191.17101
7.8894601 17.669399 191.327
8.0304403 17.6866 191.51199
8.17379 17.7083 191.748
8.3212099 17.738001 192.069
8.4636803 17.756399 192.26801
8.60781 17.777599 192.498
8.7519703 17.7983 192.722
8.89956 17.825199 193.013
9.1906796 17.8687 193.48399
9.3409004 17.898399 193.806
9.7901297 17.980101 194.69099
9.9385204 18.003401 194.94299
10.0886 18.0291 195.22099
10.2404 18.0571 195.524
10.3888 18.078501 195.756
10.5401 18.104401 196.036
10.6966 18.1383 196.40401
10.85 18.1661 196.705
11.0046 18.1954 197.022
11.1625 18.2293 197.38901
11.3248 18.2694 197.823
-10.4512 18.437201 198.146
-10.3045 18.4216 197.978
-10.1584 18.406601 197.817
-10.0121 18.3908 197.647
-9.8659601 18.374901 197.476
-9.7221603 18.363001 197.34801
-9.5791397 18.3522 197.23199
-9.43715 18.3431 197.134
-9.2952003 18.333799 197.034
-9.1533003 18.324301 196.93201
-9.0110397 18.313801 196.819
-8.8692303 18.3039 196.713
-8.72791 18.294701 196.614
-8.5875702 18.2873 196.535
-8.44629 18.2777 196.431
-8.3050699 18.267799 196.325
-8.1652403 18.260799 196.24899
-8.0250998 18.2528 196.16299
-7.8841701 18.242701 196.05499
-7.7444301 18.235001 195.972
-7.6054101 18.2288 195.905
-7.3263698 18.2131 195.73801
-7.1868 18.2048 195.64799
-7.0473099 18.196301 195.556
-6.9085698 18.1894 195.483
-6.7697301 18.181999 195.403
-6.6307101 18.1738 195.315
-6.4914999 18.164801 195.218
-6.3523698 18.1555 195.118
-6.0738602 18.135099 194.899
-5.9348202 18.1248 194.789
-5.79633 18.115801 194.692
-5.6579599 18.106701 194.59399
-5.5200801 18.098801 194.509
-5.38169 18.0888 194.401
-5.24331 18.0783 194.289
-5.1049199 18.0672 194.16901
-4.9671202 18.0576 194.06599
-4.82938 18.0478 193.96001
-4.6921902 18.039499 193.871
-4.5546498 18.029301 193.761
-4.4176798 18.0208 193.67
-4.2802 18.0096 193.55
-4.14291 17.998501 193.431
-4.0055499 17.986401 193.30099
-3.8692701 17.978399 193.215
-3.7325799 17.967899 193.10201
-3.5965199 17.9597 193.01401
-3.46034 17.9503 192.91299
-3.32481 17.943701 192.842
-3.18924 17.936199 192.761
-3.0534101 17.9266 192.659
-2.9182999 17.9205 192.593
-2.6475101 17.9027 192.401
-2.51197 17.8913 192.27901
-2.37642 17.878599 192.142
-2.24137 17.868299 192.03101
-2.10676 17.860399 191.94701
-1.97228 17.8526 191.86301
-1.8374799 17.8407 191.735
-1.7030801 17.830999 191.63
-1.56893 17.822399 191.539
-1.43472 17.811701 191.424
-1.3006999 17.8013 191.311
-1.1669101 17.792101 191.21201
-0.89977503 17.774 191.019
-0.76646799 17.766399 190.936
-0.63328099 17.7589 190.856
-0.50016099 17.749901 190.759
-0.36716801 17.7404 190.657
-0.10161 17.722099 190.46001
0.030972 17.718201 190.418
0.163478 17.712299 190.355
0.295836 17.7029 190.254
0.42812201 17.696301 190.183
0.56033498 17.6905 190.121
0.82463598 17.681801 190.028
0.95685101 17.6805 190.013
1.0887901 17.674999 189.955
1.22045 17.666599 189.864
1.48394 17.6565 189.755
1.6155601 17.651199 189.698
1.74749 17.6499 189.685
1.87911 17.645901 189.642
2.01108 17.645399 189.63699
2.14221 17.6381 189.558
2.2737401 17.6348 189.522
2.4047501 17.628 189.44901
2.53633 17.6259 189.42599
2.6673999 17.6206 189.369
2.7989399 17.618799 189.35001
2.92993 17.6138 189.297
3.06144 17.612301 189.28
3.1921201 17.6063 189.215
3.323 17.601801 189.16701
3.4541199 17.5989 189.136
3.5857799 17.5989 189.136
3.71662 17.594999 189.09399
3.8475399 17.5916 189.058
3.97823 17.587601 189.015
4.10955 17.5865 189.00301
4.2415099 17.5881 189.02
4.3720198 17.5837 188.97301
4.5031099 17.5819 188.95399
4.6339698 17.5793 188.92599
4.76582 17.580601 188.939
4.8973098 17.5804 188.938
5.0294399 17.5825 188.96001
5.1611199 17.583 188.965
5.2931199 17.584499 188.981
5.4250998 17.5858 188.996
5.55759 17.5888 189.02699
5.6903701 17.5924 189.067
5.8232198 17.5961 189.10699
6.09061 17.608 189.23399
6.2260098 17.618299 189.345
6.3616099 17.628799 189.45799
6.4971099 17.638599 189.563
6.7677102 17.656 189.75
6.90487 17.669001 189.89
7.0444002 17.687401 190.088
7.1829 17.7026 190.25101
7.3176098 17.708099 190.31
7.4552102 17.720301 190.44099
7.59482 17.7367 190.617
7.7372599 17.7591 190.858
7.8772001 17.775 191.02901
8.0176802 17.7917 191.20799
8.1597099 17.8111 191.41701
8.3071203 17.841499 191.744
8.4511604 17.8638 191.98399
8.7385597 17.905001 192.42599
8.8880196 17.9363 192.763
9.03685 17.965401 193.075
9.3313198 18.0149 193.60699
9.4790401 18.0396 193.87199
9.6324797 18.0742 194.245
9.7841396 18.1047 194.57201
9.9344501 18.1318 194.86301
10.0848 18.158199 195.147
10.2374 18.188101 195.468
10.3883 18.214001 195.74699
10.541 18.242399 196.052
10.6978 18.2771 196.425
10.8516 18.305901 196.735
11.0062 18.3353 197.05
11.1665 18.3734 197.46001
11.3288 18.4137 197.89301
-10.4494 18.572201 198.11301
-10.3027 18.556299 197.944
-10.0109 18.526199 197.623
-9.8653097 18.5112 197.463
-9.7214804 18.4991 197.334
-9.5786304 18.4886 197.22099
-9.4363899 18.478901 197.118
-9.2944298 18.4695 197.017
-9.1526804 18.460199 196.91901
-9.0104904 18.449699 196.80701
-8.8687601 18.439899 196.702
-8.7274303 18.430599 196.603
-8.5866804 18.4223 196.515
-8.44555 18.412901 196.414
-8.3045197 18.4034 196.312
-8.1646605 18.396099 196.235
-8.0243702 18.387699 196.146
-7.8828502 18.376101 196.022
-7.7428398 18.367701 195.93201
-7.6038198 18.361401 195.864
-7.4642501 18.3535 195.78
-7.3248301 18.3456 195.69701
-7.18543 18.337601 195.61099
-7.0458398 18.328699 195.51601
-6.9070802 18.3216 195.44099
-6.7683201 18.314301 195.362
-6.6294899 18.306499 195.27901
-6.49015 18.2969 195.177
-6.3509002 18.287201 195.073
-6.2112198 18.275801 194.952
-6.0720901 18.265499 194.842
-5.9331198 18.255301 194.733
-5.7950201 18.247299 194.64799
-5.6570101 18.239201 194.561
-5.5191898 18.2314 194.478
-5.3808398 18.2213 194.371
-5.2424598 18.210699 194.257
-5.1040201 18.1992 194.13499
-4.9660702 18.1889 194.02499
-4.8287501 18.1805 193.935
-4.69138 18.1714 193.838
-4.55374 18.160601 193.72301
-4.41711 18.153299 193.645
-4.2793398 18.140699 193.511
-4.1420698 18.129601 193.392
-4.0047498 18.117399 193.26199
-3.8684199 18.108999 193.172
-3.7316501 18.0979 193.054
-3.5955601 18.0893 192.963
-3.4591801 18.078699 192.849
-3.3236001 18.0714 192.772
-3.1881001 18.063999 192.69299
-3.0524499 18.055099 192.59801
-2.91731 18.048599 192.528
-2.7820101 18.0403 192.44
-2.6466401 18.030701 192.338
-2.5111599 18.0194 192.217
-2.3756599 18.006599 192.08
-2.2406299 17.996099 191.968
-2.10603 17.987801 191.88
-1.9714299 17.9785 191.78
-1.83691 17.968599 191.675
-1.70254 17.958799 191.57001
-1.56841 17.9499 191.476
-1.43434 17.9403 191.373
-1.30035 17.929701 191.25999
-1.16663 17.9209 191.166
-1.0328799 17.909201 191.041
-0.89952803 17.902201 190.966
-0.76628 17.895 190.89
-0.500018 17.8776 190.70399
-0.36706701 17.868299 190.605
-0.234237 17.857599 190.491
-0.101577 17.8489 190.39799
0.0309615 17.8447 190.353
0.29575101 17.830299 190.19901
0.427995 17.8234 190.12601
0.56016701 17.8176 190.064
0.69217998 17.8099 189.981
0.82436103 17.808201 189.964
0.95653999 17.806999 189.951
1.08848 17.8022 189.899
1.22013 17.794201 189.814
1.35181 17.7882 189.75
1.4835 17.7833 189.698
1.61507 17.777901 189.64
1.7469701 17.7768 189.62801
1.87852 17.772301 189.58099
2.0104699 17.7721 189.57899
2.1413801 17.7633 189.485
2.2730701 17.761499 189.466
2.4040699 17.7549 189.395
2.5355599 17.752501 189.369
2.66658 17.747101 189.311
2.7978499 17.743799 189.27699
2.9288099 17.738899 189.22501
3.0602601 17.7372 189.207
3.1909201 17.7314 189.145
3.3218999 17.727699 189.105
3.45277 17.7237 189.063
3.58412 17.722401 189.048
3.7151699 17.719801 189.02
3.8457899 17.7153 188.97301
3.97665 17.7122 188.94
4.1077499 17.7104 188.92
4.3704 17.708799 188.903
4.50138 17.706699 188.881
4.6318002 17.7026 188.83701
4.76337 17.7031 188.842
4.8945999 17.7022 188.83299
5.0269198 17.705299 188.866
