# .PCD v0.7 - Point Cloud Data file format
VERSION 0.7
FIELDS x y z
SIZE 4 4 4
TYPE F F F
COUNT 1 1 1
WIDTH 1774
HEIGHT 1
VIEWPOINT 0 0 0 1 0 0 0
POINTS 1774
DATA ascii
-1.15659 1.66192 189.52
-1.02439 1.66149 189.472
-0.892515 1.66154 189.47701
-0.76051301 1.66133 189.453
-0.62856197 1.66116 189.43401
-0.49677101 1.66144 189.466
-0.36488199 1.6614799 189.47
-0.232981 1.6614701 189.46899
-0.10111 1.66193 189.522
0.030837899 1.66256 189.593
0.162894 1.66328 189.675
0.294949 1.66335 189.683
0.42706001 1.66359 189.711
0.69087797 1.66283 189.62399
0.82251698 1.66208 189.539
0.953987 1.66125 189.444
1.08538 1.6605 189.358
1.2169501 1.6601599 189.32001
1.34815 1.65942 189.23599
1.48016 1.65973 189.271
1.61259 1.66043 189.35001
1.74493 1.66092 189.40601
1.87771 1.6617399 189.5
2.0102201 1.66223 189.55499
2.27581 1.66345 189.69501
2.4088399 1.66412 189.772
2.54196 1.66478 189.847
2.6754 1.66558 189.937
2.80832 1.66599 189.985
2.94102 1.66624 190.013
3.07393 1.66658 190.052
3.2065301 1.66673 190.07001
3.3389699 1.6668 190.077
3.4709401 1.66663 190.05701
3.60267 1.66636 190.02699
3.73475 1.66627 190.01601
3.8657 1.6657 189.951
3.9972601 1.6654201 189.91901
4.1282802 1.66493 189.864
4.2595801 1.66459 189.825
4.3903899 1.66409 189.767
4.5218201 1.6638401 189.739
4.6543398 1.66399 189.757
4.7849302 1.66347 189.69701
4.9168401 1.66342 189.69099
5.0500798 1.66381 189.73599
5.18155 1.66361 189.713
5.31429 1.66382 189.737
5.4475098 1.66417 189.77699
5.71384 1.66478 189.84599
5.84829 1.6654299 189.92101
5.9813499 1.66567 189.948
6.1147299 1.66598 189.983
6.2494602 1.66664 190.05901
6.3845 1.6673501 190.14
6.79071 1.66959 190.395
6.9258399 1.67022 190.466
7.0604701 1.6707 190.521
7.1952901 1.6712 190.57899
7.3294702 1.67155 190.619
7.46281 1.67169 190.63499
7.5990701 1.67247 190.724
7.7361999 1.67342 190.832
7.8723302 1.6741101 190.911
8.0093498 1.67498 191.009
8.1438904 1.6753 191.04601
8.2787704 1.67568 191.09
8.4158802 1.6764899 191.18201
8.5534897 1.67738 191.283
8.6919403 1.6784 191.39999
8.8297997 1.67928 191.5
8.9675503 1.68011 191.595
9.1065702 1.68115 191.714
9.24541 1.68213 191.825
9.3869696 1.68357 191.989
9.5266304 1.68463 192.11
9.6662798 1.68566 192.228
9.8089504 1.68718 192.401
9.9499502 1.68838 192.53799
10.0904 1.68946 192.661
10.2305 1.6904401 192.77299
10.3742 1.69199 192.95
10.5181 1.69354 193.12601
10.6613 1.6949199 193.284
10.8034 1.69611 193.41901
10.9472 1.69753 193.58099
11.0884 1.6985101 193.694
11.2314 1.6997401 193.834
11.3732 1.70078 193.952
11.5193 1.70241 194.138
11.6687 1.7045 194.37601
12.0745 1.7237999 196.577
12.2174 1.72465 196.674
12.3514 1.72425 196.62801
12.4878 1.72417 196.619
12.6155 1.72293 196.47701
12.7442 1.72183 196.35201
12.8793 1.72162 196.32899
13.0142 1.72138 196.30099
13.1501 1.72128 196.28999
13.2856 1.72113 196.27299
13.4253 1.7215199 196.31799
13.5639 1.7217799 196.34599
13.6968 1.7213 196.29201
13.8314 1.72104 196.263
13.9617 1.72026 196.173
14.0926 1.71957 196.095
14.2195 1.71841 195.96201
14.3474 1.7173899 195.84599
14.4749 1.7163399 195.726
14.6071 1.71587 195.673
14.7438 1.71592 195.679
14.8824 1.7162 195.71001
15.9096 1.78561 203.62601
-8.08288 1.8388799 194.27
-7.93888 1.8368599 194.056
-7.7944398 1.8346601 193.82401
-7.6526198 1.83301 193.649
-7.5151 1.83235 193.57899
-7.37854 1.8319 193.532
-7.2404199 1.83104 193.44099
-7.10429 1.83066 193.40199
-6.9688301 1.8304501 193.379
-6.8259001 1.82822 193.144
-6.6831999 1.8259701 192.90601
-6.5421801 1.82409 192.707
-6.40307 1.82268 192.558
-6.2627501 1.82086 192.366
-6.1244302 1.81955 192.228
-5.9861302 1.81819 192.084
-5.8480301 1.81683 191.94
-5.7128 1.8163199 191.886
-5.5782499 1.816 191.853
-5.44315 1.81549 191.798
-5.3087201 1.8151799 191.76601
-5.1742201 1.8148201 191.728
-5.0388899 1.81416 191.658
-4.9038601 1.81356 191.595
-4.7687001 1.81288 191.52299
-4.6324401 1.81174 191.40199
-4.49575 1.8103499 191.255
-4.2237701 1.80791 190.998
-3.9526501 1.80554 190.74699
-3.8188601 1.80507 190.698
-3.6849201 1.80449 190.636
-3.4175501 1.80346 190.528
-3.28354 1.8027 190.448
-3.1506 1.8025 190.427
-3.0178499 1.80239 190.41499
-2.8852201 1.80235 190.41
-2.6194999 1.8019201 190.36501
-2.4867799 1.80178 190.35001
-2.35291 1.80074 190.241
-2.2191899 1.7997 190.13
-2.0859699 1.79896 190.05299
-1.9528199 1.79818 189.97
-1.81942 1.79705 189.85001
-1.68655 1.79629 189.77
-1.55372 1.79546 189.68201
-1.42144 1.7951601 189.651
-1.2891901 1.79485 189.618
-1.15684 1.79431 189.561
-1.02469 1.79398 189.52699
-0.89270598 1.7939 189.51801
-0.76069099 1.79371 189.49699
-0.62869602 1.7934901 189.47501
-0.49687499 1.79379 189.506
-0.23301899 1.79373 189.5
0.030845501 1.79506 189.64
0.16293 1.7957799 189.717
0.29506499 1.79617 189.758
0.42726001 1.7965699 189.8
0.55944198 1.7967401 189.81799
0.69126099 1.7959 189.729
0.82288098 1.7948999 189.623
0.95435601 1.7939 189.517
1.08588 1.7932301 189.44701
1.21731 1.79255 189.375
1.3487 1.79196 189.313
1.48068 1.7922 189.338
1.61296 1.79272 189.39301
1.7454 1.79333 189.457
1.87801 1.7940201 189.53
2.14308 1.79501 189.63499
2.2763801 1.79603 189.742
2.40962 1.79688 189.83299
2.5427899 1.7976 189.909
2.6763699 1.79853 190.006
2.9422801 1.79936 190.09399
3.07515 1.79967 190.127
3.2077999 1.79984 190.145
3.3406301 1.80009 190.17101
3.47229 1.79971 190.131
3.60396 1.79936 190.095
3.7365501 1.79949 190.108
3.8673601 1.79878 190.033
3.99875 1.79837 189.99001
4.26086 1.79735 189.882
4.3916502 1.79678 189.82201
4.5237098 1.7967499 189.81799
4.65589 1.79676 189.82001
4.78653 1.7962 189.75999
4.9184599 1.7961299 189.75301
5.05164 1.79652 189.79401
5.1830702 1.79628 189.769
5.31566 1.79644 189.786
5.4491 1.79687 189.832
5.5815401 1.79697 189.842
5.7150502 1.79739 189.88699
5.8495798 1.79811 189.963
5.9830899 1.79849 190.00301
6.1162 1.79874 190.02901
6.2511501 1.7995 190.11
6.3857999 1.80015 190.17799
6.5220799 1.80123 190.29201
6.6559801 1.80162 190.33299
6.7915001 1.80242 190.41701
6.92698 1.80318 190.498
7.06141 1.80364 190.547
7.1970901 1.8044 190.627
7.3311801 1.80474 190.66299
7.4642601 1.80483 190.672
7.6015301 1.8059 190.786
7.7386899 1.8069201 190.89301
7.8745298 1.80759 190.964
8.0111303 1.8084199 191.052
8.14606 1.80885 191.097
8.2811804 1.80931 191.145
8.4187803 1.81028 191.248
8.5549603 1.81092 191.31599
8.6945696 1.81226 191.45799
8.9696398 1.81398 191.63901
9.1094503 1.8152601 191.774
9.2480001 1.81625 191.879
9.3896999 1.81782 192.045
9.5296898 1.81902 192.172
9.6696901 1.82019 192.29601
9.8126097 1.82187 192.47301
9.9517403 1.8228199 192.573
10.0923 1.82399 192.696
10.2329 1.82513 192.817
10.3772 1.82692 193.006
10.5222 1.82876 193.2
10.6662 1.8304 193.37399
10.8074 1.83152 193.492
10.9531 1.83336 193.686
11.0968 1.83482 193.84
11.2358 1.83547 193.91
11.3825 1.83737 194.11
11.5293 1.8392299 194.30701
11.6658 1.83943 194.328
12.0891 1.86296 196.814
12.2274 1.86316 196.83501
12.6249 1.86116 196.62399
12.7575 1.86054 196.558
12.8918 1.86017 196.519
13.0267 1.85989 196.49001
13.1642 1.86 196.50101
13.2991 1.85973 196.47301
13.4353 1.85965 196.464
13.5706 1.85945 196.44299
13.7041 1.85902 196.397
13.8378 1.8586 196.353
13.9685 1.85781 196.27
14.097 1.85674 196.15601
14.2235 1.85542 196.01801
14.3513 1.8543 195.899
14.4802 1.85334 195.798
14.614 1.85303 195.76401
14.7494 1.8529201 195.75301
14.8917 1.85367 195.832
15.9181 1.92847 203.73399
-7.6556201 1.96866 193.72501
-7.5187898 1.96814 193.674
-7.38097 1.96735 193.59599
-7.24471 1.96694 193.556
-7.1075702 1.96628 193.491
-6.97083 1.9657 193.43401
-6.8304501 1.9640599 193.272
-6.6883502 1.96184 193.054
-6.5474901 1.95991 192.864
-6.4064102 1.9578201 192.659
-6.1270099 1.95426 192.308
-5.9885402 1.95277 192.161
-5.8496199 1.95105 191.992
-5.7153101 1.95083 191.97
-5.5801802 1.95031 191.91901
-5.4452 1.94981 191.871
-5.3101602 1.94928 191.81799
-5.1757498 1.94894 191.785
-5.0405798 1.9483 191.722
-4.9064002 1.94802 191.694
-4.7712898 1.94734 191.627
-4.6346798 1.94599 191.495
-4.4977398 1.94443 191.34
-4.3614402 1.94305 191.205
-4.2257099 1.9418401 191.086
-4.0899401 1.94054 190.95799
-3.8205199 1.93874 190.78101
-3.68625 1.93797 190.705
-3.5526299 1.9375 190.659
-3.41837 1.93663 190.57401
-3.2844801 1.93591 190.50301
-3.15167 1.9358 190.491
-3.01914 1.93585 190.496
-2.88638 1.93575 190.48599
-2.75368 1.93568 190.48
-2.6206999 1.9354 190.452
-2.3543701 1.93445 190.358
-2.22082 1.93355 190.27
-1.95397 1.93163 190.082
-1.6874599 1.92951 189.873
-1.55451 1.92856 189.77901
-1.42195 1.92796 189.72
-1.15715 1.92687 189.61301
-1.02494 1.9264801 189.57401
-0.89288902 1.9263 189.55701
-0.760827 1.9260401 189.53101
-0.62881202 1.92582 189.509
-0.49695599 1.92609 189.536
-0.36500499 1.92607 189.534
-0.23305801 1.9260401 189.532
-0.101143 1.9265701 189.584
0.030852299 1.92758 189.68201
0.16298001 1.92853 189.776
0.295187 1.92914 189.836
0.42740399 1.92942 189.864
0.55970502 1.92986 189.907
0.69156998 1.92892 189.814
0.95476401 1.92673 189.599
1.0862401 1.92582 189.509
1.21768 1.92505 189.43401
1.3491499 1.9244699 189.37601
1.48107 1.92458 189.38699
1.61336 1.92512 189.44
1.74581 1.92574 189.502
1.87853 1.92656 189.582
2.0109501 1.92699 189.62399
2.1435001 1.92748 189.673
2.2769699 1.9286799 189.791
2.4105201 1.92983 189.90401
2.67751 1.93169 190.08701
2.81073 1.9323 190.147
2.9435899 1.9326299 190.179
3.07651 1.93296 190.21201
3.2093201 1.93319 190.235
3.34202 1.93335 190.25
3.4735 1.9328099 190.19701
3.73809 1.9327 190.186
3.86885 1.93188 190.106
4.0001798 1.93139 190.058
4.1308999 1.93065 189.985
4.26262 1.93041 189.961
4.39329 1.92972 189.89301
4.5254502 1.9297 189.89101
4.6570601 1.92946 189.867
4.78824 1.92906 189.828
4.92031 1.9290299 189.825
5.0532398 1.92932 189.854
5.1847801 1.92909 189.832
5.3176298 1.92935 189.856
5.4503999 1.9295599 189.877
5.5832701 1.92979 189.89999
5.7163401 1.93009 189.92999
5.8505602 1.93075 189.994
5.98423 1.9312 190.039
6.1177502 1.93159 190.077
6.2526398 1.93238 190.155
6.3878598 1.9332401 190.24001
6.5232601 1.9341201 190.326
6.65766 1.93468 190.381
6.79319 1.9355299 190.465
6.9278302 1.9361 190.521
7.0631399 1.9368401 190.59399
7.1988201 1.93764 190.673
7.3326898 1.93794 190.702
7.46627 1.93815 190.72301
7.60286 1.9391299 190.819
7.7400999 1.94023 190.92799
7.87708 1.94124 191.026
8.28438 1.94319 191.21899
8.42132 1.94407 191.306
8.5580101 1.94487 191.384
8.69769 1.9463201 191.526
8.8343601 1.94705 191.599
8.9719801 1.94797 191.689
9.1123505 1.94945 191.83501
9.39293 1.95226 192.11099
9.5326204 1.95348 192.231
9.6723003 1.9546601 192.34801
9.8146095 1.95634 192.51199
9.9541397 1.95742 192.619
10.095 1.95874 192.74899
10.2367 1.96017 192.88901
10.5266 1.96415 193.282
10.6716 1.96608 193.47099
10.814 1.9674799 193.60899
10.9587 1.96926 193.784
11.1006 1.97051 193.908
11.2461 1.97236 194.089
11.5283 1.9744 194.28999
11.9542 2.0004001 196.849
12.0954 2.0011001 196.91701
12.2339 2.0013299 196.94
12.3697 2.0011201 196.91901
12.5005 2.0000999 196.819
12.6341 1.99958 196.767
12.7661 1.99879 196.69
12.8999 1.9983 196.642
13.0364 1.99825 196.63699
13.1723 1.99809 196.621
13.3074 1.99782 196.595
13.4426 1.9975801 196.571
13.5782 1.9974 196.554
13.7116 1.9969 196.504
13.8431 1.99614 196.429
13.975 1.99543 196.36
14.102 1.9940701 196.226
14.2275 1.99251 196.073
14.3578 1.99166 195.98801
14.4893 1.99097 195.92101
14.6238 1.99073 195.896
14.7577 1.9903899 195.864
15.9219 2.0708699 203.783
-7.5219402 2.10392 193.755
-7.3839302 2.10303 193.673
-7.2477398 2.1026399 193.63699
-7.1115499 2.1022301 193.599
-6.9738698 2.1013501 193.519
-6.8355198 2.10024 193.416
-6.6936598 2.09798 193.20799
-6.5507798 2.0953 192.961
-6.4088302 2.0928099 192.73199
-6.2687402 2.0908301 192.55
-6.1297698 2.08916 192.395
-5.9914699 2.08763 192.255
-5.8522902 2.0857301 192.08
-5.71732 2.0852699 192.03799
-5.5820699 2.0846901 191.98399
-5.44696 2.08413 191.933
-5.3120298 2.0836101 191.88499
-5.17732 2.0831599 191.843
-5.0423899 2.0825901 191.791
-4.9085898 2.0824699 191.78
-4.7737699 2.0818999 191.72701
-4.6371298 2.0804801 191.59599
-4.50033 2.0789001 191.451
-4.3639698 2.07743 191.31599
-4.0926099 2.0748999 191.082
-3.9569099 2.0734999 190.953
-3.8217399 2.0722799 190.842
-3.68748 2.07149 190.769
-3.5534599 2.07078 190.703
-3.4194 2.0699999 190.631
-3.2853601 2.06916 190.554
-3.15206 2.0687301 190.515
-3.02001 2.0691299 190.55099
-2.88726 2.0690601 190.545
-2.75475 2.06916 190.554
-2.6217899 2.0689199 190.532
-2.4893899 2.0691199 190.55
-2.3557 2.0682099 190.466
-2.22246 2.06761 190.411
-2.0890801 2.0667901 190.336
-1.95509 2.0652201 190.19099
-1.82163 2.0640199 190.08
-1.5554399 2.06198 189.89301
-1.42242 2.06077 189.782
-1.28977 2.0599301 189.70399
-1.15739 2.05936 189.65199
-1.02518 2.05899 189.618
-0.89315897 2.0589499 189.614
-0.76100302 2.0585301 189.575
-0.62893301 2.0582099 189.54601
-0.497053 2.0585101 189.57401
-0.36508101 2.0585101 189.573
-0.233117 2.0585799 189.58
-0.101175 2.0592899 189.645
0.030860299 2.06022 189.731
0.163038 2.06144 189.843
0.29526499 2.0619099 189.886
0.42749101 2.0620899 189.903
0.55989301 2.06283 189.97099
0.69181901 2.0618701 189.882
0.82362401 2.06091 189.79401
0.95519 2.05971 189.683
1.08661 2.0585201 189.57401
1.2182699 2.0579901 189.52499
1.34956 2.0569999 189.43401
1.48153 2.0571401 189.44701
1.61401 2.0578899 189.51601
1.74622 2.0582199 189.54601
1.87896 2.0590899 189.62601
2.01142 2.05954 189.668
2.1440201 2.0600901 189.718
2.2776101 2.06146 189.845
2.4112599 2.0627301 189.96201
2.5452299 2.0641301 190.091
2.6786001 2.06493 190.16499
2.8118601 2.0655799 190.224
2.9449 2.06601 190.26401
3.0778799 2.06637 190.297
3.21088 2.0667 190.327
3.3433599 2.06669 190.327
3.4752901 2.06636 190.29601
3.60747 2.06619 190.28
3.73944 2.0659101 190.255
3.8701701 2.0650001 190.17101
4.0019398 2.0646801 190.14101
4.13273 2.06389 190.069
4.26442 2.06359 190.041
4.3951201 2.06284 189.972
4.5271702 2.0627501 189.963
4.6589198 2.06253 189.94299
4.79036 2.0621901 189.912
4.92275 2.0622599 189.91901
5.0551801 2.06236 189.927
5.1868501 2.06214 189.907
5.3194299 2.0622799 189.92101
5.45262 2.06265 189.95399
5.5856199 2.0629399 189.981
5.7182002 2.06305 189.991
5.8522601 2.0636799 190.05
5.9861398 2.06423 190.10001
6.1199198 2.0647099 190.144
6.2549901 2.0656099 190.22701
6.3899698 2.0664301 190.30299
6.5249901 2.06724 190.377
6.6592102 2.06776 190.425
6.7946501 2.06864 190.506
6.92939 2.0692699 190.564
7.2006798 2.0709901 190.722
7.3342299 2.0712099 190.742
7.4681702 2.0715301 190.772
7.6040702 2.0723701 190.85001
7.7418399 2.0736799 190.97099
7.8788099 2.0747399 191.06799
8.01579 2.0757699 191.16299
8.1506796 2.07623 191.205
8.2874403 2.0771501 191.28999
8.4237604 2.07793 191.36099
8.5607796 2.07885 191.446
8.6994696 2.0801401 191.56599
8.8367205 2.0810599 191.64999
8.9748898 2.08216 191.75101
9.1155596 2.0838101 191.903
9.2555599 2.0852499 192.036
9.3972797 2.0870299 192.2
9.6760702 2.0894499 192.422
9.8164501 2.0908201 192.549
9.9590197 2.0926099 192.713
10.0988 2.09378 192.82201
10.2419 2.0955901 192.98801
10.384 2.0971501 193.131
10.5314 2.09973 193.37
10.6769 2.1018801 193.567
10.8199 2.1034901 193.715
10.9655 2.10554 193.90401
11.1113 2.10759 194.093
11.256 2.10939 194.259
11.3975 2.1105499 194.366
11.8129 2.13675 196.778
11.9677 2.13993 197.071
12.1035 2.1396899 197.049
12.3774 2.1396101 197.04201
12.5085 2.1385701 196.946
12.6416 2.1379001 196.884
12.7753 2.13732 196.83099
12.9131 2.13745 196.843
13.3194 2.1366899 196.77299
13.4517 2.1359401 196.70399
13.5852 2.1354101 196.655
13.7163 2.1345 196.57201
13.9754 2.1322801 196.366
14.1031 2.1309199 196.241
14.2303 2.1294999 196.11099
14.3634 2.1289999 196.065
14.4952 2.1283 196.00101
14.6312 2.1282401 195.995
14.7698 2.1285601 196.024
-7.3868198 2.2388101 193.74899
-7.2508602 2.2384701 193.72
-7.1135998 2.23772 193.655
-6.9785199 2.2376299 193.64799
-6.83778 2.2356901 193.48
-6.69696 2.23365 193.30299
-6.5548301 2.23107 193.08
-6.4135399 2.2286899 192.873
-6.2715101 2.22593 192.63499
-5.99405 2.2225001 192.338
-5.8538799 2.22012 192.132
-5.7199502 2.2200501 192.12601
-5.5841899 2.21925 192.05701
-5.44906 2.2186699 192.006
-5.31425 2.21819 191.965
-5.17904 2.21752 191.907
-5.0444198 2.2170701 191.868
-4.9105101 2.2169099 191.854
-4.7757902 2.2163799 191.808
-4.6402702 2.21542 191.726
-4.5035901 2.21385 191.589
-4.2311101 2.21086 191.33
-3.95959 2.2079899 191.082
-3.82424 2.20665 190.966
-3.5551901 2.20468 190.79601
-3.4209299 2.2037599 190.716
-3.1531601 2.2021999 190.58099
-3.02036 2.2021 190.573
-2.88798 2.2023201 190.592
-2.7556801 2.20263 190.618
-2.6227 2.2024 190.59801
-2.49018 2.2025399 190.61099
-2.3569901 2.20208 190.571
-2.0905199 2.2008801 190.467
-1.95648 2.19926 190.327
-1.82288 2.1979201 190.211
-1.68957 2.1967599 190.11
-1.4228801 2.19368 189.84399
-1.2901 2.19262 189.752
-1.15776 2.1921699 189.713
-1.02551 2.1917701 189.67799
-0.89346999 2.1917901 189.67999
-0.76120001 2.1911399 189.62399
-0.62906897 2.1907101 189.58701
-0.497161 2.19103 189.61501
-0.36517599 2.1911299 189.623
-0.233209 2.1914899 189.655
-0.101221 2.1923599 189.73
0.030867999 2.19292 189.778
0.16305999 2.19397 189.869
0.29530799 2.19449 189.914
0.427573 2.1947801 189.939
0.56008297 2.1958899 190.035
0.692128 2.1951101 189.967
0.82396501 2.19402 189.873
0.95559198 2.19275 189.763
1.08716 2.19168 189.67
1.21883 2.191 189.612
1.35014 2.1898799 189.515
1.48198 2.18975 189.504
1.61438 2.1903901 189.55901
1.7464 2.19047 189.56599
1.87924 2.1914799 189.65401
2.0116701 2.19192 189.692
2.14429 2.1925001 189.742
2.2781 2.19416 189.886
2.4118099 2.19555 190.005
2.5459599 2.19717 190.145
2.67975 2.1983299 190.246
2.81305 2.1990099 190.30499
2.9463601 2.19962 190.358
3.07936 2.19997 190.388
3.2121301 2.20013 190.40199
3.3445499 2.2000401 190.395
3.47683 2.1998799 190.38
3.60887 2.19958 190.354
3.74055 2.19908 190.312
3.8714199 2.1981699 190.23199
4.00352 2.1979799 190.216
4.1349301 2.1974499 190.17
4.2662101 2.1968801 190.121
4.3975701 2.1963799 190.078
4.5295501 2.1962199 190.063
4.6607699 2.1956999 190.019
4.7921801 2.1953001 189.98399
4.9246402 2.19539 189.992
5.0566001 2.19526 189.981
5.1888399 2.19526 189.98
5.3209801 2.19521 189.976
5.4542999 2.1956401 190.013
5.5875301 2.1960101 190.045
5.7200499 2.1961 190.05299
5.8537502 2.19662 190.09801
5.9879498 2.1973 190.157
6.1223502 2.19803 190.22
6.2568402 2.19875 190.283
6.3916502 2.1995599 190.353
6.52601 2.2001801 190.407
6.6604099 2.2007899 190.459
6.7956901 2.2016699 190.535
6.93115 2.2025599 190.61301
7.0668702 2.20351 190.694
7.20192 2.20421 190.755
7.33599 2.2045901 190.78799
7.4703002 2.20503 190.826
7.60566 2.20576 190.88901
7.7433 2.2071199 191.007
7.88061 2.2083299 191.112
8.01789 2.2095001 191.213
8.1529903 2.2100401 191.259
8.2898502 2.21103 191.345
8.4264498 2.21192 191.422
8.7019196 2.2142 191.62
8.8397398 2.2153101 191.716
8.9777002 2.2164199 191.812
9.1189203 2.2182901 191.97301
9.2591496 2.2198701 192.11
9.5391903 2.2228 192.36301
9.6789303 2.2241399 192.479
9.8203402 2.2258201 192.625
9.9634399 2.2278299 192.799
10.1021 2.2288001 192.883
10.2469 2.2310901 193.08099
10.3881 2.2325499 193.20799
10.536 2.2353899 193.45399
10.6802 2.23739 193.62601
10.9776 2.2430799 194.119
11.1238 2.2453101 194.312
11.2651 2.24652 194.41701
11.4002 2.24647 194.412
11.6651 2.2716999 196.59599
11.8329 2.2776401 197.11
11.9728 2.2781701 197.15601
12.1129 2.2786901 197.201
12.2508 2.27881 197.211
12.3835 2.2779701 197.138
12.6514 2.2767799 197.035
12.7859 2.27631 196.995
12.9268 2.2769699 197.052
13.0598 2.2762401 196.989
13.1949 2.2758901 196.959
13.3254 2.27477 196.862
13.5901 2.27319 196.72501
13.7193 2.27191 196.614
13.8488 2.2707 196.509
13.9777 2.2694199 196.399
14.1072 2.26826 196.298
14.2373 2.26721 196.207
14.3704 2.26667 196.16
14.5018 2.2658601 196.09
14.6395 2.2660501 196.10699
15.4845 2.33162 201.78101
-7.2529101 2.3740799 193.77499
-7.1173501 2.3738599 193.757
-6.9814901 2.3735199 193.73
-6.84267 2.3721499 193.618
-6.70119 2.3697901 193.425
-6.5595899 2.36728 193.22
-6.4173102 2.3644199 192.987
-6.2751198 2.36147 192.746
-6.13517 2.3592501 192.565
-5.9962201 2.3573201 192.407
-5.8565502 2.35502 192.22
-5.7213302 2.35444 192.172
-5.58604 2.3538001 192.12
-5.45119 2.3533299 192.082
-5.3160701 2.35271 192.03101
-5.1815701 2.35234 192.00101
-5.04673 2.35179 191.95599
-4.9130802 2.3517799 191.955
-4.7794099 2.3517599 191.953
-4.6428399 2.35027 191.832
-4.5073099 2.3492301 191.74699
-4.3709202 2.3476701 191.62
-4.0980802 2.3442199 191.338
-3.8266001 2.34111 191.084
-3.6912899 2.3396599 190.966
-3.5567601 2.3386199 190.881
-3.4219501 2.33729 190.77299
-3.2874601 2.3361001 190.675
-3.1540699 2.3356199 190.636
-3.02143 2.33567 190.64
-2.88868 2.33565 190.638
-2.7565899 2.33617 190.681
-2.6238101 2.3361399 190.67799
-2.4916 2.3366399 190.71899
-2.3584399 2.3362501 190.687
-2.2253001 2.33584 190.65401
-2.0920701 2.3352699 190.608
-1.9579099 2.3335299 190.465
-1.82403 2.3318801 190.33099
-1.6902601 2.3301301 190.188
-1.55685 2.32862 190.065
-1.42353 2.3269701 189.92999
-1.29065 2.3257799 189.83299
-1.1582 2.3251901 189.785
-1.02598 2.32496 189.76601
-0.893731 2.32458 189.735
-0.761437 2.32394 189.683
-0.62936699 2.3238599 189.677
-0.49729601 2.32374 189.666
-0.36528301 2.32389 189.67799
-0.23328701 2.3243699 189.718
-0.10125 2.3251801 189.784
0.030877599 2.32584 189.838
0.163105 2.32686 189.92101
0.29535601 2.3271501 189.94501
0.42767701 2.3276501 189.985
0.56024098 2.3289101 190.089
0.69222999 2.32777 189.995
0.824274 2.3271401 189.944
0.95588899 2.32564 189.82201
1.21929 2.3239501 189.68401
1.35089 2.3231699 189.62
1.48238 2.3223701 189.55499
1.61454 2.32266 189.57899
1.74654 2.32269 189.58099
1.87971 2.3241701 189.702
2.0118899 2.3243101 189.713
2.1447301 2.32514 189.78101
2.27913 2.3274701 189.97099
2.4127901 2.32884 190.08299
2.54706 2.33061 190.228
2.6804299 2.33144 190.295
2.8138001 2.33217 190.355
2.9473701 2.33301 190.423
3.08004 2.3330901 190.42999
3.2135301 2.33376 190.485
3.3461699 2.3337901 190.487
3.4781699 2.33338 190.453
3.6101 2.3329501 190.41901
3.7414999 2.3322301 190.36
3.87289 2.3315499 190.304
4.0047402 2.3311801 190.274
4.1371598 2.3311701 190.27299
4.2682099 2.33039 190.209
4.3995099 2.3297999 190.161
4.5319901 2.32985 190.166
4.6631598 2.3292501 190.116
4.7946801 2.32885 190.08299
4.92698 2.32883 190.082
5.0595298 2.3289399 190.091
5.3242998 2.32898 190.09399
5.45751 2.32935 190.125
5.5886798 2.32886 190.08501
5.8552098 2.3296101 190.145
5.9898701 2.3304999 190.218
6.1245699 2.3313701 190.289
6.25949 2.3322799 190.36301
6.3933902 2.3327799 190.405
6.5275402 2.3333499 190.451
6.6623702 2.3341401 190.515
6.7971501 2.3348801 190.576
6.9327798 2.33588 190.657
7.0682001 2.3367701 190.73
7.20292 2.3374 190.78101
7.33779 2.3380599 190.83501
7.4725299 2.33865 190.883
7.6075501 2.3392999 190.937
7.74512 2.3407099 191.05099
7.8821001 2.3418901 191.14799
8.01933 2.3431101 191.24699
8.15452 2.3436999 191.29601
8.2908897 2.3446 191.369
8.42906 2.3459799 191.48199
8.5671597 2.34729 191.589
8.7046499 2.3484001 191.67999
8.8424101 2.34955 191.77299
9.1222696 2.35287 192.04401
9.2635002 2.35478 192.2
9.4030504 2.35622 192.31799
9.5424299 2.3575799 192.429
9.6824598 2.35906 192.55
9.8236599 2.36078 192.69
9.9687796 2.36338 192.90199
10.1084 2.36462 193.00301
10.2526 2.36691 193.19
10.3958 2.3689001 193.35201
10.5435 2.37185 193.593
10.6842 2.3731501 193.7
10.8445 2.3787401 194.15601
10.9907 2.38114 194.351
11.1328 2.3825901 194.47
11.2641 2.3817201 194.399
11.6931 2.4144101 197.067
11.8373 2.4158499 197.185
11.9796 2.4168501 197.267
12.1189 2.4172499 197.299
12.2555 2.4171 197.287
12.3909 2.4167199 197.256
12.5265 2.4163899 197.229
12.6616 2.4159701 197.19501
12.7987 2.41594 197.192
12.9353 2.4158199 197.18201
13.0723 2.4157701 197.17799
13.2024 2.4144599 197.071
13.3327 2.4131999 196.96899
13.4633 2.41204 196.87399
13.5916 2.41048 196.74699
13.7219 2.4093201 196.65199
13.8526 2.4082301 196.563
13.9835 2.4072199 196.481
14.1122 2.4058299 196.367
14.2435 2.4049201 196.293
14.3774 2.40446 196.255
14.5117 2.4040799 196.224
14.6498 2.40432 196.244
15.7696 2.4950299 203.64799
-7.2561698 2.51017 193.862
-7.1198902 2.5097101 193.826
-6.9844899 2.5095401 193.813
-6.8480201 2.50897 193.77
-6.70467 2.50581 193.52499
-6.56288 2.5031199 193.317
-6.2801299 2.49771 192.89999
-6.13903 2.49494 192.686
-5.9995499 2.4927199 192.51401
-5.86057 2.4906099 192.351
-5.7237501 2.4893501 192.254
-5.5884299 2.4886899 192.203
-5.4527998 2.48785 192.138
-5.31844 2.48757 192.117
-5.1834602 2.48698 192.071
-5.0487099 2.48647 192.03101
-4.91536 2.48664 192.04401
-4.7814598 2.4865301 192.036
-4.6455798 2.4853499 191.94501
-4.50981 2.48417 191.854
-4.3740602 2.4829199 191.758
-4.2372799 2.4809999 191.60899
-4.1008401 2.4791601 191.467
-3.9644799 2.4772401 191.319
-3.8287001 2.4755599 191.189
-3.6930001 2.47381 191.054
-3.55814 2.4725201 190.95399
-3.4233899 2.47121 190.853
-3.2890401 2.4700899 190.767
-3.1555901 2.4695899 190.728
-3.02244 2.46928 190.70399
-2.88924 2.46891 190.675
-2.62464 2.4697399 190.739
-2.35955 2.4702301 190.77699
-2.22648 2.4699399 190.755
-2.09326 2.46945 190.717
-1.82533 2.4662099 190.467
-1.55785 2.46259 190.187
-1.42453 2.4609799 190.063
-1.29142 2.45948 189.94701
-1.15883 2.45872 189.888
-1.0263 2.4579 189.825
-0.89406198 2.4576499 189.806
-0.62956399 2.4567499 189.73599
-0.49744901 2.4566 189.724
-0.36543399 2.45702 189.757
-0.233395 2.45766 189.806
0.16316099 2.45999 189.987
0.29545701 2.46029 190.00999
0.42782801 2.46084 190.052
0.56033498 2.46173 190.121
0.69236398 2.4605801 190.032
0.82454699 2.4602599 190.007
0.95616001 2.45856 189.87601
1.0880001 2.4577899 189.81599
1.21955 2.4565899 189.724
1.3512501 2.4559 189.67101
1.48276 2.45503 189.603
1.61496 2.4553499 189.62801
1.74701 2.4554 189.632
1.88002 2.4567001 189.733
2.0124199 2.4570899 189.763
2.1454401 2.4581499 189.84399
2.2797401 2.4604499 190.022
2.41383 2.46229 190.164
2.5477901 2.46382 190.282
2.68082 2.46434 190.323
2.94785 2.4660499 190.45399
3.0808899 2.4664099 190.48199
3.21473 2.46736 190.556
3.34708 2.46714 190.53799
3.4790101 2.46663 190.49899
3.6108501 2.4661 190.459
3.7425301 2.4655001 190.412
3.87395 2.4647801 190.356
4.0064502 2.4647701 190.355
4.1386499 2.4645801 190.341
4.2698498 2.46383 190.283
4.4017501 2.46351 190.258
4.5341001 2.46346 190.254
4.6648598 2.46257 190.186
4.7962599 2.46206 190.146
4.9286399 2.46206 190.146
5.0609198 2.4620099 190.14301
5.1932001 2.4619701 190.14
5.3270302 2.4626501 190.192
5.4596901 2.46276 190.201
5.5912199 2.4623799 190.17101
5.7239199 2.4625101 190.181
5.8576198 2.4630599 190.224
5.9920702 2.4638901 190.28799
6.12674 2.4647801 190.35699
6.2608299 2.4654 190.40401
6.3952398 2.46612 190.46001
6.5292101 2.46664 190.5
6.66397 2.4674301 190.561
6.7989001 2.46826 190.625
6.9333901 2.46889 190.674
7.06954 2.4700899 190.76601
7.2046499 2.47088 190.827
7.3392301 2.4714601 190.87199
7.4741998 2.4721501 190.92599
7.6101198 2.47313 191.00101
7.7470002 2.47438 191.09801
7.88446 2.47577 191.205
8.0203304 2.47662 191.271
8.1566 2.4775701 191.34399
8.2928495 2.4784801 191.414
8.43188 2.48018 191.54601
8.57024 2.4816301 191.658
8.7080297 2.4828801 191.754
8.8443499 2.48367 191.815
8.9854097 2.48575 191.976
9.1245003 2.4872401 192.091
9.4052801 2.4907701 192.364
9.5457497 2.49248 192.496
9.6857204 2.49402 192.614
9.8283596 2.4961901 192.782
9.9669304 2.4972799 192.867
10.1147 2.5006101 193.12399
10.2589 2.50301 193.30901
10.4033 2.5053799 193.492
10.55 2.50823 193.71201
10.7 2.51177 193.985
10.8571 2.5169001 194.381
11.1292 2.51722 194.40601
11.6975 2.55264 197.142
11.8394 2.5536301 197.218
11.9833 2.5550599 197.32899
12.1216 2.5552499 197.343
12.2608 2.55563 197.373
12.3989 2.5557799 197.384
12.5365 2.5558 197.386
12.6717 2.5553601 197.35201
12.8112 2.5557799 197.38499
12.9447 2.5550001 197.32401
13.0794 2.5544801 197.284
13.2091 2.55302 197.17101
13.3414 2.5520599 197.097
13.4678 2.55002 196.939
13.728 2.54743 196.739
13.8594 2.5463901 196.659
13.9897 2.5451901 196.567
14.1181 2.54368 196.45
14.2482 2.54249 196.358
14.3823 2.5420301 196.323
14.5205 2.5423 196.343
14.6576 2.5423701 196.349
15.7587 2.6350601 203.507
-7.3969498 2.64729 194.015
-7.2594299 2.64639 193.94901
-7.1230402 2.64588 193.912
-6.9885602 2.64608 193.92599
-6.85144 2.6452601 193.866
-6.7100801 2.64274 193.68201
-6.5689402 2.6401999 193.496
-6.4251399 2.6364701 193.222
-6.2850199 2.63412 193.05
-6.14361 2.63111 192.82899
-6.0040002 2.6287601 192.657
-5.86409 2.6261699 192.467
-5.72717 2.62482 192.369
-5.5913501 2.62393 192.30299
-5.4552002 2.6228399 192.22301
-5.3206301 2.6224599 192.196
-5.1853399 2.6217101 192.14
-5.0511899 2.62151 192.125
-4.9181499 2.6218901 192.153
-4.7841902 2.6217799 192.145
-4.5138302 2.6201301 192.02499
-4.3780999 2.6189101 191.935
-4.2410302 2.61677 191.778
-4.1041598 2.61463 191.62199
-3.9669399 2.6121199 191.437
-3.8311601 2.6104 191.312
-3.6951599 2.6084099 191.166
-3.5599999 2.60689 191.054
-3.2904799 2.60411 190.85001
-3.1570001 2.6036 190.813
-3.02349 2.60302 190.77
-2.89024 2.6026199 190.741
-2.7580199 2.6031499 190.78
-2.6255 2.60344 190.80099
-2.49349 2.60429 190.864
-2.36061 2.60428 190.86301
-2.22786 2.60443 190.87399
-2.09448 2.6038001 190.828
-1.96076 2.6026399 190.743
-1.69257 2.5986199 190.448
-1.42529 2.5947599 190.16499
-1.29215 2.59324 190.054
-1.15931 2.5920501 189.967
-1.02661 2.5908999 189.883
-0.89434499 2.5906701 189.866
-0.76195198 2.5899301 189.811
-0.62979102 2.5898399 189.80499
-0.36556801 2.5901401 189.827
-0.23349699 2.5909901 189.88901
-0.101323 2.5914299 189.92101
0.0308998 2.59215 189.974
0.16322801 2.59338 190.064
0.29555801 2.5935299 190.075
0.428 2.59426 190.129
0.56042498 2.5945699 190.151
0.69264299 2.5939901 190.10899
0.82479298 2.59337 190.064
0.95646799 2.59164 189.937
1.0883501 2.5908301 189.877
1.21995 2.5895901 189.786
1.35165 2.5887899 189.72701
1.48323 2.58792 189.664
1.61534 2.5880301 189.672
1.74751 2.5882199 189.686
1.88033 2.5892899 189.76401
2.01298 2.5899899 189.81599
2.14606 2.59112 189.899
2.2804599 2.5936301 190.082
2.4145501 2.59552 190.22099
2.6808901 2.5969701 190.328
2.8146801 2.59816 190.41499
2.9484401 2.59922 190.492
3.0817499 2.5998199 190.536
3.2152801 2.6005399 190.589
3.3476801 2.6003101 190.57201
3.4795899 2.59975 190.53101
3.6113801 2.5991399 190.48599
3.7433901 2.5987301 190.45599
3.8749299 2.5980201 190.40401
4.0083599 2.5985899 190.446
4.14042 2.5982699 190.422
4.2716198 2.59744 190.362
4.4038901 2.59729 190.351
4.5358901 2.5969999 190.32899
4.6668301 2.5961299 190.26601
4.7981601 2.59552 190.22099
4.9308801 2.59568 190.233
5.0626101 2.59532 190.20599
5.1954999 2.5955601 190.224
5.3295498 2.59635 190.282
5.4619598 2.5963199 190.28
5.5937901 2.59603 190.259
5.7270498 2.5964 190.285
5.8603501 2.59677 190.313
5.9944801 2.5974801 190.36501
6.1287098 2.5982101 190.418
6.2625699 2.5987401 190.457
6.3965201 2.5992999 190.498
6.5317402 2.6003399 190.57401
6.6658401 2.6008899 190.61501
6.8006301 2.6016901 190.673
6.9350901 2.60234 190.72099
7.0719199 2.6038301 190.83
7.2066998 2.6045301 190.882
7.3413601 2.60517 190.92799
7.4765201 2.6059501 190.985
7.6129298 2.6071301 191.07201
7.7497501 2.6084099 191.166
7.8864198 2.6096001 191.25301
8.0218296 2.6103401 191.30701
8.1587896 2.6115501 191.396
8.4351301 2.6145999 191.619
8.573 2.6159699 191.72
8.7110004 2.6173301 191.819
8.8494196 2.6187799 191.925
8.9899197 2.62079 192.073
9.1261997 2.62152 192.127
9.2698698 2.62433 192.33299
9.4083099 2.6256001 192.42599
9.5501299 2.6277599 192.584
9.6879797 2.6287899 192.659
9.8345003 2.6321101 192.903
9.9764795 2.63414 193.05099
10.1218 2.6370001 193.261
10.2658 2.63941 193.438
10.414 2.6428599 193.69099
10.5555 2.64451 193.812
10.7142 2.6503999 194.243
10.86 2.6529901 194.433
10.9934 2.6525099 194.39799
11.2381 2.6786001 196.31
11.4157 2.68822 197.015
11.5589 2.68963 197.118
11.701 2.6907499 197.2
11.8452 2.6923201 197.315
11.985 2.6928799 197.356
12.1275 2.69401 197.439
12.2663 2.6942999 197.46001
12.4048 2.69454 197.478
12.5452 2.6951599 197.524
12.6805 2.69469 197.489
12.9512 2.6938 197.424
13.0847 2.6929901 197.364
13.2185 2.69227 197.312
13.3481 2.69069 197.196
13.4784 2.6893001 197.09399
13.6077 2.6877501 196.981
13.7418 2.68716 196.937
13.8726 2.68594 196.84801
13.9992 2.6839399 196.701
14.1281 2.68241 196.589
14.3921 2.6805999 196.45599
14.5273 2.68031 196.435
14.6652 2.68051 196.45
15.347 2.7537799 201.82001
15.6014 2.77404 203.304
15.7723 2.7792001 203.683
-7.26298 2.78284 194.04401
-7.1263299 2.7822299 194.002
-6.9921198 2.7825699 194.02499
-6.8557801 2.7820499 193.989
-6.7140298 2.7792799 193.79601
-6.5728998 2.77665 193.612
-6.4302101 2.7732401 193.375
-6.28967 2.7706299 193.19299
-6.1484299 2.7676001 192.981
-6.0074701 2.76455 192.769
-5.8670902 2.7616401 192.565
-5.7302799 2.7603099 192.47301
-5.5946498 2.7595 192.41701
-5.45821 2.75824 192.32899
-5.3227401 2.7574301 192.272
-5.1875801 2.7567301 192.22301
-5.0538101 2.7567599 192.22501
-4.9211502 2.7574 192.27
-4.7881799 2.75791 192.306
-4.65377 2.7575901 192.283
-4.5187602 2.7568901 192.23399
-4.2444901 2.7525899 191.935
-4.1073599 2.7502401 191.771
-3.83377 2.7455299 191.442
-3.5615799 2.7411799 191.13901
-3.42643 2.7395201 191.02299
-3.29179 2.7381401 190.927
-3.1579499 2.73733 190.871
-3.02461 2.7369101 190.841
-2.89132 2.7365 190.813
-2.7586501 2.73666 190.82401
-2.62638 2.7372601 190.866
-2.49472 2.73859 190.95799
-2.3617699 2.73857 190.957
-2.2294199 2.73929 191.007
-2.09588 2.7385399 190.955
-1.8279001 2.7353799 190.73399
-1.55975 2.73085 190.41901
-1.4260401 2.7286501 190.265
-1.29293 2.7272601 190.168
-1.15994 2.7258401 190.069
-1.02709 2.7244201 189.97099
-0.89471197 2.72404 189.944
-0.76229 2.72335 189.896
-0.63006598 2.7232299 189.88699
-0.49783599 2.7230101 189.87199
-0.36575201 2.7237301 189.922
-0.23361801 2.7246599 189.987
-0.101361 2.72474 189.993
0.030912699 2.72561 190.054
0.16329101 2.72682 190.138
0.29565501 2.72682 190.13699
0.42815101 2.7276499 190.196
0.56055999 2.72767 190.19701
0.69285202 2.7272201 190.166
0.82492501 2.7262001 190.09399
0.95663399 2.7244101 189.97
1.08864 2.72382 189.929
1.2204601 2.7229199 189.866
1.35189 2.72142 189.761
1.48359 2.72068 189.71001
1.6155699 2.72053 189.69901
1.74784 2.72086 189.722
1.8805799 2.7218201 189.789
2.0134699 2.7228701 189.862
2.1466601 2.72416 189.952
2.2812099 2.7269199 190.145
2.4150901 2.7286201 190.263
2.54895 2.73013 190.369
2.6816499 2.73031 190.381
2.8160999 2.7321801 190.511
2.9493101 2.7327099 190.549
3.0822699 2.73299 190.56799
3.21573 2.73367 190.61501
3.3482299 2.7335 190.604
3.47997 2.73276 190.552
3.61201 2.73229 190.519
3.7439499 2.7317901 190.48399
3.8755901 2.7311101 190.437
4.0095601 2.73206 190.50301
4.1415901 2.7316799 190.476
4.27316 2.73101 190.42999
4.4057298 2.73101 190.42999
4.5376902 2.7306499 190.405
4.66923 2.7300601 190.36301
4.8005199 2.7293601 190.315
4.9332199 2.72948 190.323
5.0645399 2.7288499 190.27901
5.1982098 2.72948 190.323
5.3321099 2.7302001 190.373
5.4643602 2.7300601 190.364
5.5964298 2.72984 190.34801
5.7295098 2.7301099 190.367
5.8627601 2.7304499 190.39101
5.99686 2.7311599 190.44
6.1305499 2.7316599 190.47501
6.26438 2.7321899 190.51199
6.39849 2.73283 190.55701
6.5339198 2.73399 190.63699
6.6680698 2.73458 190.679
6.8029699 2.73544 190.739
6.9366298 2.73579 190.763
7.0734401 2.73734 190.871
7.20893 2.7383299 190.94099
7.3432899 2.7388699 190.978
7.4783301 2.73963 191.03101
7.6157498 2.74123 191.14301
7.7526202 2.7425799 191.237
7.8892798 2.7438099 191.32201
8.02423 2.74441 191.364
8.1619997 2.74594 191.47099
8.2996902 2.74739 191.57201
8.4386501 2.7492199 191.69901
8.5771103 2.7508199 191.811
8.7135 2.75173 191.875
8.8537998 2.7538199 192.02
8.9945698 2.75599 192.172
9.1306 2.75667 192.21899
9.2736197 2.7594099 192.41
9.4138603 2.76126 192.539
9.5546198 2.7632 192.675
9.6944103 2.7648201 192.787
9.8390102 2.76774 192.991
9.9850101 2.7709701 193.216
10.1258 2.7726901 193.336
10.2713 2.77564 193.54201
10.5724 2.7839799 194.123
10.721 2.7874701 194.367
10.8542 2.7869301 194.32899
11.105 2.8162301 196.37199
11.2743 2.8243799 196.94
11.4186 2.82617 197.065
11.5612 2.8274901 197.157
11.7043 2.8289101 197.257
11.9862 2.8306301 197.377
12.1249 2.83093 197.397
12.2691 2.83249 197.506
12.4089 2.83303 197.543
12.5498 2.8337901 197.597
12.6889 2.83412 197.62
12.8294 2.83478 197.666
12.9599 2.83321 197.556
13.2237 2.8308101 197.38901
13.3543 2.82936 197.28799
13.487 2.8283801 197.22
13.6209 2.8276899 197.17101
13.752 2.8264301 197.08299
13.8806 2.8246601 196.96001
14.1355 2.8208101 196.69099
14.267 2.8197501 196.617
14.4026 2.81949 196.599
14.5384 2.8192799 196.58501
14.6848 2.82112 196.713
15.3598 2.89676 201.98801
15.6077 2.9168301 203.38699
-7.27391 2.92239 194.336
-7.1304002 2.91903 194.112
-6.99612 2.9193799 194.136
-6.8588901 2.9184899 194.077
-6.7185998 2.91624 193.927
-6.4361701 2.91063 193.554
-6.29212 2.9063301 193.26801
-6.1525798 2.90397 193.11099
-6.0125599 2.9012699 192.93201
-5.8716698 2.89802 192.716
-5.73348 2.8959899 192.58099
-5.5978799 2.8952 192.528
-5.4612999 2.8938501 192.438
-5.3252802 2.89273 192.364
-5.1904101 2.8922 192.328
-4.9239998 2.8929999 192.382
-4.7912698 2.8937199 192.42999
-4.5219898 2.8928499 192.37199
-4.3862901 2.89168 192.29401
-4.2484198 2.8889599 192.11301
-3.9730501 2.88323 191.73199
-3.69982 2.87834 191.407
-3.4281499 2.8740101 191.119
-3.2931199 2.8722799 191.004
-3.1593001 2.87151 190.952
-3.0256901 2.8708601 190.91
-2.8922501 2.8703201 190.87399
-2.7597401 2.8707099 190.899
-2.6273799 2.87129 190.938
-2.4958701 2.87291 191.04601
-2.3627701 2.8728001 191.03799
-2.23048 2.8736899 191.09801
-2.09705 2.8731599 191.062
-1.96321 2.8719399 190.981
-1.6950001 2.8680301 190.72099
-1.56069 2.8652101 190.533
-1.4269201 2.8629501 190.383
-1.2937 2.8614099 190.28101
-1.16055 2.85972 190.16901
-0.89504701 2.85741 190.015
-0.76267201 2.8570499 189.991
-0.63036299 2.8568399 189.97701
-0.49809301 2.85674 189.97
-0.36594 2.85748 190.019
-0.233713 2.85816 190.065
-0.10141 2.8584599 190.08501
0.030928001 2.8594 190.14799
0.163362 2.8605101 190.22099
0.295771 2.8603699 190.21201
0.42830601 2.86116 190.26401
0.56078798 2.86131 190.274
0.69308299 2.86063 190.229
0.825001 2.85886 190.112
0.956891 2.8575001 190.021
1.0888799 2.85673 189.97
1.22083 2.85603 189.923
1.35233 2.8545201 189.823
1.48399 2.85359 189.761
1.6159199 2.8532801 189.74001
1.7483799 2.8538799 189.78
1.88117 2.8549099 189.849
2.01405 2.8559301 189.916
2.1475501 2.85764 190.03
2.28181 2.8601201 190.19501
2.4158101 2.86201 190.321
2.5497799 2.8636701 190.431
2.6828499 2.8642001 190.466
2.8168199 2.8656001 190.56
2.94965 2.8657701 190.571
3.0829599 2.8663599 190.61
3.2161601 2.8668201 190.64101
3.3487799 2.86673 190.63499
3.48053 2.8659501 190.58299
3.61268 2.86553 190.55499
3.7444999 2.8648901 190.51199
3.8764 2.8643601 190.47701
4.01021 2.8652101 190.534
4.1426001 2.8650401 190.52299
4.2743602 2.86446 190.48399
4.4074898 2.8648 190.507
4.5393801 2.8643401 190.476
4.6707401 2.86358 190.425
4.8027301 2.86324 190.40199
4.9351902 2.8631899 190.399
5.0661998 2.8623199 190.341
5.20011 2.86309 190.392
5.33465 2.8641601 190.464
5.4667802 2.86392 190.448
5.59936 2.86392 190.448
5.7316899 2.8638 190.44
5.8646898 2.8640001 190.453
5.9986401 2.86466 190.49699
6.1325698 2.8652699 190.53799
6.2662902 2.8657601 190.57001
6.4010501 2.8666999 190.633
6.53579 2.86759 190.692
6.6694398 2.86798 190.718
6.80514 2.86922 190.8
6.9390702 2.8696699 190.83
7.0748601 2.8708701 190.91
7.2109499 2.8721299 190.994
7.3453999 2.87272 191.033
7.4797001 2.87322 191.06599
7.6180902 2.8752501 191.201
7.7550101 2.8766699 191.29601
7.8910899 2.8777299 191.366
8.16397 2.8800001 191.517
8.3017502 2.8815501 191.62
8.4410896 2.88358 191.755
8.5801001 2.8854301 191.87801
8.7167597 2.8864501 191.946
8.8564901 2.8884399 192.07899
8.9986601 2.89116 192.259
9.1381702 2.8929601 192.379
9.2770596 2.8945 192.48199
9.4190502 2.89696 192.645
9.5584497 2.8985701 192.752
9.6999302 2.9007499 192.897
9.8435097 2.9034901 193.07899
9.9887695 2.9066501 193.289
10.1308 2.9087801 193.431
10.2776 2.91223 193.661
10.4303 2.9172299 193.993
10.5782 2.92079 194.23
10.7215 2.9230001 194.37601
10.9663 2.9524701 196.33701
11.1319 2.96014 196.847
11.4218 2.9642701 197.121
11.5645 2.9656799 197.215
11.7075 2.9671099 197.31
11.8488 2.9681001 197.37601
11.988 2.96855 197.40601
12.1293 2.9695001 197.46899
12.273 2.971 197.56799
12.4147 2.9719901 197.63499
12.5582 2.9733901 197.728
12.702 2.9748499 197.825
12.8367 2.9741399 197.77699
12.9669 2.97244 197.664
13.1029 2.97207 197.64
13.5003 2.9686799 197.414
13.6332 2.9677 197.349
13.7637 2.9662099 197.25
13.8926 2.9644301 197.132
14.0245 2.96329 197.056
14.2807 2.9595301 196.806
14.4142 2.9588001 196.757
14.5514 2.9588599 196.761
15.1956 3.0327499 201.675
15.438 3.0529201 203.01601
15.6138 3.05968 203.466
-6.9994998 3.0560801 194.23
-6.8628101 3.0554199 194.188
-6.72365 3.0536201 194.073
-6.58182 3.0504899 193.875
-6.2962298 3.0429299 193.394
-6.1589599 3.04163 193.311
-6.0180898 3.03845 193.10899
-5.87712 3.0350699 192.895
-5.7380199 3.0325301 192.733
-5.6010299 3.0309999 192.636
-5.4647799 3.02981 192.56
-5.3292699 3.02898 192.508
-5.1929002 3.0276101 192.42101
-5.0593801 3.0278699 192.437
-4.9274502 3.02912 192.51601
-4.7941899 3.0295999 192.547
-4.66008 3.0295601 192.54401
-4.3900499 3.0282099 192.459
-4.25172 3.02512 192.26199
-4.1138 3.02212 192.07201
-3.8392401 3.01651 191.715
-3.70224 3.0136299 191.532
-3.5658 3.0110199 191.366
-3.4296899 3.0084701 191.20399
-3.29459 3.00666 191.089
-3.16067 3.00581 191.035
-3.0269101 3.0050499 190.987
-2.8933899 3.0044501 190.94901
-2.76087 3.00491 190.978
-2.6286099 3.0056901 191.028
-2.4967 3.0069799 191.11
-2.2314601 3.00811 191.181
-2.09812 3.0077701 191.159
-1.96462 3.0071199 191.118
-1.83073 3.0057299 191.03
-1.69622 3.0030301 190.858
-1.56172 2.9999001 190.659
-1.42786 2.99751 190.508
-1.29452 2.9958601 190.40199
-1.16105 2.99348 190.25101
-1.028 2.99172 190.13901
-0.89544398 2.99108 190.099
-0.63066 2.9905701 190.06599
-0.49834999 2.9906001 190.06799
-0.36612701 2.9913599 190.117
-0.233812 2.9918101 190.145
0.0309461 2.9935999 190.259
0.16345701 2.99472 190.33
0.29592901 2.9944501 190.313
0.42847699 2.99489 190.341
0.56096399 2.9947801 190.334
0.69322199 2.9937301 190.267
0.82511199 2.9916899 190.13699
0.95705098 2.99036 190.05299
1.08915 2.98979 190.017
1.2210799 2.98893 189.96201
1.35269 2.98753 189.873
1.48446 2.9867101 189.821
1.6162699 2.9860899 189.782
1.74895 2.9870601 189.843
1.88168 2.9879701 189.901
2.0146 2.9890299 189.96899
2.1482699 2.99101 190.09399
2.2821901 2.9930899 190.22701
2.41646 2.9953799 190.37199
2.5504301 2.9970701 190.48
2.6835201 2.9976101 190.51401
2.8169401 2.9984601 190.56799
2.9502699 2.99913 190.61099
3.08359 2.9997499 190.64999
3.2165899 3 190.666
3.3491001 2.99981 190.653
3.4806199 2.99877 190.588
3.6129301 2.9984601 190.56799
3.7451 2.99807 190.543
3.8773401 2.9977601 190.52299
4.0111499 2.99863 190.57899
4.1433802 2.9983201 190.55901
4.2754798 2.99792 190.534
4.4084902 2.9981699 190.55
4.5409198 2.9980299 190.541
4.6722002 2.9971499 190.485
4.8046098 2.99703 190.47701
4.93717 2.997 190.47501
5.0686598 2.99635 190.43401
5.2024298 2.99704 190.478
5.3365698 2.99791 190.533
5.4693899 2.9979999 190.539
5.6023002 2.9981501 190.548
5.7349601 2.9981501 190.548
5.8666601 2.9976699 190.517
6.0005498 2.9982901 190.55701
6.1343198 2.9988401 190.592
6.2688398 2.9997201 190.64799
6.4035401 3.0006499 190.707
6.5380001 3.00143 190.756
6.6712899 3.0016501 190.77
6.8069601 3.0029099 190.851
6.9412699 3.00354 190.89101
7.0770202 3.00476 190.968
7.21316 3.0060899 191.05299
7.3481798 3.0069201 191.105
7.4824901 3.0074201 191.138
7.6192999 3.0089099 191.23199
7.75699 3.01068 191.34399
7.8932099 3.0118301 191.418
8.0282898 3.0125101 191.461
8.1660995 3.0141799 191.567
8.30373 3.0157299 191.666
8.4428101 3.01775 191.79401
8.58144 3.0195501 191.908
8.7197905 3.0211999 192.013
8.8578596 3.0227001 192.10899
9.0006599 3.0257499 192.302
9.1405001 3.02772 192.42799
9.2814398 3.03 192.573
9.4233398 3.0325301 192.733
9.5614405 3.0337701 192.812
9.8488197 3.0396099 193.183
9.9946203 3.0430601 193.40199
10.1429 3.0471499 193.662
10.2867 3.0498199 193.832
10.5775 3.0558701 194.216
10.9978 3.0980999 196.89999
11.1401 3.09955 196.993
11.2773 3.09955 196.993
11.4222 3.10167 197.127
11.5678 3.10392 197.27
11.8507 3.10606 197.407
11.9906 3.10671 197.44701
12.1333 3.1080501 197.533
12.2751 3.1091499 197.603
12.4198 3.11095 197.717
12.5651 3.1128399 197.83701
12.7078 3.1140499 197.914
12.8423 3.11326 197.864
12.977 3.11254 197.81799
13.1097 3.11133 197.742
13.2424 3.1101799 197.668
13.3775 3.1095901 197.631
13.5156 3.10971 197.63901
13.6548 3.11009 197.662
13.9158 3.1069 197.46001
14.0467 3.1054599 197.368
14.3054 3.1019599 197.146
15.0412 3.17027 201.487
15.2684 3.1884301 202.64101
15.4381 3.19434 203.017
15.6262 3.2039399 203.627
-7.1403699 3.1938901 194.384
-7.0041199 3.19347 194.358
-6.8671498 3.1926899 194.311
-6.7289901 3.19133 194.22701
-6.58918 3.1891 194.092
-6.3011599 3.18012 193.545
-6.16154 3.1776099 193.392
-6.0225801 3.1753199 193.25301
-5.88167 3.17189 193.04401
-5.74125 3.16855 192.842
-5.6045699 3.1671801 192.758
-5.4679499 3.1657701 192.672
-5.3320298 3.16471 192.60699
-5.19591 3.16347 192.532
-5.0629301 3.16412 192.57201
-4.9312301 3.1656401 192.664
-4.7983499 3.16646 192.714
-4.6630301 3.1656699 192.666
-4.5279102 3.1649799 192.62399
-4.3917599 3.1634901 192.534
-4.25495 3.1614299 192.408
-3.9788799 3.1549499 192.013
-3.84113 3.1515999 191.80901
-3.70454 3.1489999 191.651
-3.56778 3.14605 191.472
-3.29617 3.1412699 191.181
-3.1621599 3.1403501 191.125
-3.0288501 3.14008 191.10899
-2.76249 3.13977 191.09
-2.63009 3.1405201 191.13499
-2.49804 3.1417799 191.21201
-2.3652301 3.14218 191.237
-2.2324901 3.14274 191.27
-2.09921 3.14254 191.259
-1.96576 3.14206 191.229
-1.83199 3.14095 191.161
-1.69735 3.1380601 190.98599
-1.5628901 3.13504 190.802
-1.29513 3.1299601 190.493
-1.02863 3.12608 190.257
-0.89592201 3.12516 190.201
-0.76335597 3.1245201 190.161
-0.63104397 3.12485 190.18201
-0.49868199 3.1250701 190.19501
-0.36638501 3.1259799 190.25101
-0.23396499 3.1262901 190.27
-0.101541 3.12731 190.33099
0.030967999 3.12833 190.394
0.16353799 3.12885 190.425
0.29609501 3.1287701 190.42
0.42862099 3.12851 190.40401
0.561113 3.12819 190.38499
0.69330299 3.1266201 190.28999
0.82526797 3.1247101 190.173
0.95727497 3.1234601 190.097
1.0893199 3.1226201 190.04601
1.22132 3.12186 189.99899
1.35312 3.12077 189.933
1.48491 3.1198599 189.87801
1.61681 3.1193199 189.845
1.74944 3.1201501 189.896
1.8821501 3.1210101 189.948
2.0150001 3.1219699 190.006
2.1487899 3.1241701 190.14
2.4170499 3.1287401 190.418
2.5507801 3.1301799 190.506
2.6835401 3.1303401 190.51601
2.8171799 3.1314499 190.584
2.95085 3.13252 190.64799
3.0841601 3.1331201 190.685
3.2169199 3.1331301 190.686
3.3494699 3.1329501 190.675
3.4806399 3.13153 190.588
3.61306 3.13131 190.575
3.7456901 3.1312699 190.573
3.87784 3.1308601 190.547
4.01197 3.13201 190.618
4.1441798 3.13165 190.595
4.4092698 3.1314499 190.58299
4.5416398 3.1312399 190.571
4.6735802 3.1307499 190.541
4.8063998 3.1308701 190.548
4.9393001 3.1310301 190.558
5.0714102 3.1306901 190.537
5.20544 3.13152 190.588
5.3390899 3.1320901 190.623
5.47188 3.1321499 190.62601
5.6051698 3.1324699 190.645
5.7379498 3.1324999 190.64799
5.8689799 3.1315999 190.593
6.0029802 3.1322899 190.634
6.13661 3.13276 190.66299
6.2714801 3.1338301 190.728
6.4062099 3.1347899 190.786
6.5403399 3.1354101 190.825
6.6739101 3.1357601 190.84599
6.8097501 3.13713 190.929
6.9436002 3.1375599 190.955
7.0797701 3.1389899 191.04201
7.2153502 3.14012 191.11099
7.3506899 3.1410999 191.17
7.4864202 3.14221 191.23801
7.62182 3.1431401 191.295
7.7588902 3.1447201 191.39101
7.89608 3.1463001 191.487
8.0314302 3.1471 191.536
8.1693401 3.14886 191.64301
8.3076401 3.1507199 191.756
8.4478102 3.1532099 191.908
8.5841999 3.1542301 191.97
8.7233295 3.15622 192.091
8.8604803 3.1574399 192.16499
9.0035496 3.1607101 192.364
9.14289 3.16258 192.478
9.2856302 3.16556 192.66
9.4264297 3.16781 192.79601
9.5660801 3.16961 192.90601
9.7096205 3.1726301 193.09
9.8539896 3.1758399 193.285
9.9998598 3.17943 193.504
10.1516 3.1847701 193.828
10.2954 3.18752 193.996
10.6797 3.2219801 196.093
10.854 3.2332301 196.778
11.0017 3.2363701 196.96899
