# .PCD v0.7 - Point Cloud Data file format
VERSION 0.7
FIELDS x y z
SIZE 4 4 4
TYPE F F F
COUNT 1 1 1
WIDTH 1627
HEIGHT 1
VIEWPOINT 0 0 0 1 0 0 0
POINTS 1627
DATA ascii
-7.19415 -1.12593 192.205
-7.0552402 -1.12512 192.06599
-6.91573 -1.1241699 191.905
-6.77736 -1.1233799 191.77
-6.6383801 -1.12246 191.612
-6.5018401 -1.12191 191.519
-6.3663802 -1.12154 191.455
-6.2316999 -1.12129 191.412
-6.0946898 -1.12059 191.29401
-5.95855 -1.1200401 191.19901
-5.8225398 -1.11948 191.103
-5.6867599 -1.11894 191.011
-5.5525398 -1.11869 190.96899
-5.4176002 -1.1182801 190.89799
-5.2831898 -1.11796 190.843
-5.14783 -1.1174099 190.75
-5.0131302 -1.11699 190.67799
-4.8788199 -1.11663 190.617
-4.7441101 -1.11615 190.536
-4.61022 -1.11585 190.48399
-4.4763899 -1.11554 190.43201
-4.3424201 -1.11519 190.371
-4.2084599 -1.11481 190.306
-4.0740299 -1.11427 190.215
-3.94017 -1.11387 190.145
-3.80671 -1.1135499 190.091
-3.6733 -1.11322 190.035
-3.54038 -1.1130199 190.00101
-3.40677 -1.11259 189.927
-3.27285 -1.11201 189.828
-3.13938 -1.11154 189.748
-3.0049901 -1.11069 189.603
-2.73823 -1.10957 189.412
-2.6054599 -1.10918 189.345
-2.4727001 -1.10875 189.27299
-2.20841 -1.1083699 189.207
-2.0771401 -1.10861 189.248
-1.81443 -1.10909 189.32899
-1.68305 -1.10937 189.377
-1.55154 -1.1095999 189.41701
-1.41962 -1.10955 189.408
-1.28791 -1.1096801 189.42999
-1.15602 -1.10966 189.42799
-1.02397 -1.10946 189.39301
-0.89212197 -1.10946 189.394
-0.76035398 -1.10958 189.41299
-0.62834197 -1.10931 189.368
-0.49650601 -1.10929 189.36501
-0.364638 -1.10917 189.343
-0.232768 -1.1088901 189.29601
-0.100986 -1.10885 189.289
0.030782601 -1.10864 189.254
0.16250201 -1.10844 189.21899
0.29414201 -1.10812 189.164
0.42580301 -1.10805 189.153
0.55733299 -1.10776 189.10201
0.68892902 -1.10768 189.089
0.82049102 -1.1075799 189.07201
0.95185602 -1.10728 189.021
1.0835299 -1.10737 189.036
1.21524 -1.10747 189.054
1.34675 -1.10739 189.03999
1.47816 -1.10725 189.01601
1.61024 -1.10759 189.07401
1.74182 -1.10756 189.069
1.87366 -1.10769 189.091
2.0060899 -1.10813 189.166
2.1375201 -1.108 189.14301
2.2691801 -1.10799 189.142
2.4014699 -1.10827 189.19099
2.5334799 -1.10841 189.213
2.6657901 -1.10865 189.255
2.79844 -1.10901 189.31599
2.9298999 -1.10888 189.295
3.0623 -1.10911 189.33299
3.1945801 -1.10927 189.362
3.3266599 -1.10936 189.37601
3.4599199 -1.10981 189.45399
3.5918901 -1.10984 189.45799
3.72368 -1.10981 189.453
3.85676 -1.11015 189.51199
3.9895699 -1.1104 189.554
4.1223402 -1.11062 189.591
4.2561698 -1.1111 189.673
4.3889599 -1.11129 189.70599
4.5216398 -1.1114399 189.731
4.6547499 -1.11169 189.77299
4.7874799 -1.11183 189.798
4.9209599 -1.1121401 189.85001
5.0546298 -1.11247 189.907
5.1879201 -1.1127 189.946
5.3213 -1.11294 189.987
5.4563899 -1.11352 190.086
5.58991 -1.11375 190.12601
5.72405 -1.1141 190.186
5.8578501 -1.11437 190.231
5.9916701 -1.11463 190.27499
6.1262798 -1.11502 190.342
6.26196 -1.11558 190.439
6.3970799 -1.11603 190.51401
6.5328202 -1.11656 190.605
6.6658401 -1.1166101 190.61501
6.8010702 -1.11703 190.686
6.9382601 -1.11775 190.808
7.0746999 -1.11832 190.905
7.2122302 -1.11904 191.028
7.3496699 -1.11972 191.144
7.4868202 -1.12033 191.248
7.62501 -1.12107 191.375
7.7642498 -1.12194 191.52299
7.9008398 -1.1224 191.603
8.0361004 -1.12266 191.647
8.1738796 -1.12326 191.75
8.3157196 -1.12439 191.942
8.4528799 -1.12486 192.02299
8.59342 -1.12576 192.17599
8.7309504 -1.12625 192.259
8.8647003 -1.12623 192.257
9.0038404 -1.1269 192.37
9.1445599 -1.12774 192.513
9.2811403 -1.12805 192.56599
9.4142799 -1.1279401 192.548
9.5434504 -1.12736 192.44901
9.6739197 -1.12695 192.38
9.8045397 -1.12658 192.315
9.9368896 -1.1264 192.285
10.0694 -1.12625 192.259
10.2028 -1.1262 192.25101
10.337 -1.12624 192.258
10.4705 -1.12621 192.252
10.6059 -1.12637 192.27901
10.7365 -1.12603 192.22099
10.865 -1.1254801 192.12801
10.9905 -1.12464 191.98399
11.1141 -1.12362 191.81
11.2412 -1.12297 191.7
11.3662 -1.12214 191.558
11.5005 -1.1222301 191.57401
11.6327 -1.12212 191.55499
11.769 -1.1224101 191.603
11.9056 -1.12271 191.655
12.6607 -1.15508 197.181
12.8226 -1.1573 197.56
12.9707 -1.15824 197.72099
13.1206 -1.15933 197.90601
13.2656 -1.15996 198.01401
13.4104 -1.16056 198.116
13.5562 -1.16123 198.231
13.7042 -1.16208 198.37601
13.8541 -1.16308 198.54601
14.0016 -1.1638499 198.67799
14.1429 -1.1641001 198.72
14.2879 -1.1646399 198.813
14.4384 -1.16562 198.98
14.5911 -1.16675 199.173
14.7417 -1.16769 199.334
14.8926 -1.16865 199.49699
15.0463 -1.1698 199.69299
15.2029 -1.17115 199.924
15.3683 -1.17316 200.267
15.5284 -1.17472 200.534
15.6938 -1.17665 200.864
15.8585 -1.1785001 201.179
16.028299 -1.1806901 201.55299
-9.5652103 -1.00216 194.162
-9.4268398 -1.00182 194.09599
-9.2879295 -1.00141 194.017
-9.1478796 -1.00086 193.911
-9.00776 -1.00029 193.80099
-8.8662596 -0.99954897 193.657
-8.7267103 -0.99900699 193.552
-8.5864897 -0.99836999 193.42799
-8.4462099 -0.99770498 193.3
-8.3055401 -0.99697298 193.158
-8.1676798 -0.99655902 193.077
-8.0281897 -0.995929 192.955
-7.88937 -0.995363 192.84599
-7.75032 -0.99474698 192.726
-7.6122098 -0.99423099 192.627
-7.4732199 -0.993581 192.5
-7.3341899 -0.99290103 192.369
-7.1954002 -0.99222898 192.239
-7.0560999 -0.99146098 192.09
-6.9162402 -0.99058002 191.91901
-6.7776299 -0.98984998 191.778
-6.6391702 -0.98911202 191.63499
-6.50246 -0.98861003 191.53799
-6.3668098 -0.98825097 191.468
-6.2316399 -0.98795301 191.41
-6.0944901 -0.98732197 191.28799
-5.82266 -0.98638999 191.10699
-5.6862102 -0.985798 190.993
-5.5516 -0.985506 190.936
-5.4172702 -0.98524898 190.886
-5.28304 -0.984999 190.838
-5.1480999 -0.98459899 190.75999
-5.01296 -0.98413998 190.67101
-4.8786998 -0.98383099 190.612
-4.7444301 -0.98350602 190.549
-4.6103401 -0.98320001 190.489
-4.47684 -0.98300302 190.451
-4.3433199 -0.98278999 190.41
-4.20892 -0.98236102 190.327
-4.0742998 -0.981848 190.22701
-3.94066 -0.98154801 190.16901
-3.80739 -0.981318 190.125
-3.67381 -0.98099202 190.062
-3.54123 -0.98091698 190.047
-3.40836 -0.980753 190.015
-3.27495 -0.980416 189.95
-3.14097 -0.97987002 189.84399
-3.0069301 -0.979258 189.726
-2.87251 -0.97846103 189.571
-2.60689 -0.97783202 189.44901
-2.47383 -0.97736597 189.35899
-2.34146 -0.97713798 189.315
-2.07778 -0.97709203 189.306
-1.94642 -0.97730798 189.34801
-1.81452 -0.97726101 189.339
-1.68329 -0.977597 189.40401
-1.55176 -0.97779799 189.44299
-1.41985 -0.977781 189.439
-1.28815 -0.97791898 189.466
-1.1562001 -0.97787398 189.457
-1.02416 -0.97772503 189.429
-0.89229703 -0.97773802 189.431
-0.76046598 -0.97779101 189.44099
-0.62842202 -0.97753602 189.392
-0.49658 -0.977543 189.39301
-0.36469099 -0.97742802 189.371
-0.23280901 -0.97721499 189.33
-0.101002 -0.97716397 189.32001
0.0307904 -0.97706997 189.302
0.162558 -0.976978 189.284
0.29420099 -0.976556 189.202
0.42589301 -0.97650701 189.19299
0.55752599 -0.97637802 189.168
0.82074499 -0.97618902 189.131
0.95205998 -0.97583097 189.062
1.08376 -0.97590601 189.076
1.21548 -0.97598201 189.091
1.34698 -0.97588098 189.071
1.47847 -0.97579998 189.056
1.61063 -0.97613198 189.12
1.7421499 -0.97605199 189.104
1.87401 -0.97616398 189.12601
2.00629 -0.97646701 189.185
2.1376901 -0.97632802 189.158
2.2693801 -0.976331 189.159
2.40168 -0.97658199 189.207
2.5339999 -0.97681499 189.252
2.66588 -0.97686201 189.261
2.7983501 -0.97711498 189.31
2.9300799 -0.97709501 189.306
3.0625501 -0.97731203 189.349
3.19469 -0.97741199 189.368
3.32693 -0.977534 189.392
3.4602001 -0.97793603 189.46899
3.5920999 -0.97793603 189.46899
3.7241001 -0.97796297 189.47501
3.85727 -0.978284 189.537
3.99018 -0.97851998 189.58299
4.1230001 -0.97871798 189.621
4.2568102 -0.97913498 189.702
4.38937 -0.97924501 189.72301
4.6553602 -0.97963202 189.798
4.7880301 -0.979743 189.82001
4.9215498 -0.98001802 189.873
5.0554299 -0.98034799 189.937
5.1886401 -0.980533 189.97301
5.3219099 -0.98072201 190.009
5.4570398 -0.98123503 190.10899
5.5907302 -0.981471 190.15401
5.7245998 -0.981727 190.20399
5.8586102 -0.98199499 190.256
5.99298 -0.98231101 190.317
6.1266398 -0.98249799 190.353
6.2618599 -0.98292297 190.436
6.3973398 -0.98337001 190.522
6.5331101 -0.98384202 190.614
6.6669998 -0.98401898 190.64799
6.80162 -0.984294 190.701
6.9383202 -0.98485398 190.81
7.0753598 -0.98544002 190.923
7.2143402 -0.98626798 191.084
7.3512402 -0.98679 191.185
7.4889302 -0.98739499 191.302
7.6277099 -0.98812199 191.44299
7.7661099 -0.988774 191.569
7.9032698 -0.98924899 191.661
8.03829 -0.98944598 191.7
8.1756296 -0.98991698 191.791
8.3167295 -0.990821 191.966
8.4542904 -0.99128002 192.05499
8.5959196 -0.99219602 192.23199
8.72896 -0.99210697 192.215
8.8634901 -0.99218702 192.231
9.0022402 -0.99273098 192.336
9.1439896 -0.99358499 192.50101
9.2777596 -0.993559 192.496
9.4109297 -0.99347001 192.479
9.5418196 -0.99314702 192.416
9.6731997 -0.99288398 192.36501
9.8054304 -0.99271297 192.332
9.9396896 -0.99274898 192.339
10.0721 -0.992598 192.31
10.2057 -0.992576 192.306
10.3405 -0.992661 192.32201
10.4738 -0.99261099 192.313
10.6077 -0.99261302 192.313
10.7377 -0.99225497 192.244
10.8648 -0.99163502 192.12399
10.9892 -0.990794 191.961
11.113 -0.98991698 191.791
11.2402 -0.98936099 191.683
11.3686 -0.988922 191.59801
11.5015 -0.98888499 191.591
11.6338 -0.988792 191.573
11.7692 -0.98896199 191.606
11.9068 -0.98931801 191.675
12.6605 -1.01772 197.177
12.8239 -1.0197999 197.58
12.9732 -1.02073 197.75999
13.2676 -1.02219 198.04401
13.4122 -1.02271 198.144
13.5581 -1.0233001 198.259
13.7078 -1.0241801 198.42799
13.8541 -1.02478 198.54601
14.0023 -1.02551 198.687
14.2937 -1.02657 198.89301
14.4417 -1.0272599 199.02499
14.5925 -1.02812 199.192
14.7417 -1.02885 199.334
14.897 -1.03 199.556
15.0478 -1.03081 199.713
15.2036 -1.03195 199.93401
15.3689 -1.03371 200.274
15.528 -1.03502 200.528
15.6967 -1.03694 200.901
15.8624 -1.03863 201.228
16.031 -1.04048 201.58701
-9.5658998 -0.86698002 194.17599
-9.4276104 -0.86669302 194.112
-9.2881403 -0.86628801 194.021
-9.1482401 -0.86583102 193.91901
-9.0092802 -0.86545002 193.83299
-8.8680801 -0.86483997 193.69701
-8.7281103 -0.86433202 193.58299
-8.5899296 -0.863989 193.506
-8.4483995 -0.86329198 193.35001
-8.3076096 -0.86264902 193.20599
-8.16782 -0.86208999 193.08099
-8.0284405 -0.86155701 192.96201
-7.8888402 -0.86098301 192.83299
-7.7499199 -0.86046302 192.716
-7.6118898 -0.86002499 192.618
-7.4740901 -0.85959899 192.52299
-7.33424 -0.858917 192.37
-7.1956601 -0.85836101 192.246
-7.0566602 -0.85773301 192.105
-6.9167399 -0.85696697 191.933
-6.7772198 -0.85622001 191.76601
-6.6400099 -0.85574102 191.659
-6.50244 -0.855196 191.537
-6.36763 -0.85499901 191.493
-6.23212 -0.85469699 191.425
-6.09483 -0.854132 191.298
-5.9586902 -0.85370803 191.203
-5.82269 -0.85328197 191.108
-5.68609 -0.85274899 190.989
-5.5509701 -0.85241699 190.914
-5.4172502 -0.85228801 190.886
-5.2831001 -0.85208499 190.84
-5.1479902 -0.85171199 190.756
-5.0130501 -0.85134703 190.675
-4.8789401 -0.85110801 190.621
-4.7441301 -0.85072899 190.536
-4.6107101 -0.850586 190.504
-4.47685 -0.85035098 190.452
-4.3434401 -0.85018897 190.41499
-4.2091098 -0.84983099 190.33501
-4.07476 -0.849446 190.24899
-3.94052 -0.84905797 190.162
-3.8071699 -0.84884298 190.114
-3.6737399 -0.84859198 190.058
-3.5414701 -0.84860301 190.06
-3.40903 -0.84856999 190.05299
-3.2757101 -0.84830701 189.994
-3.1421199 -0.84794998 189.914
-2.87532 -0.847247 189.756
-2.7414601 -0.84670401 189.63499
-2.47558 -0.846071 189.493
-2.3427999 -0.84575802 189.423
-2.21018 -0.845469 189.358
-2.07847 -0.84551799 189.369
-1.94695 -0.84565002 189.399
-1.81496 -0.84558803 189.38499
-1.68374 -0.84589702 189.45399
-1.55203 -0.84599501 189.476
-1.42022 -0.84605002 189.48801
-1.2884001 -0.84610999 189.502
-1.15649 -0.84612 189.504
-1.02437 -0.84596199 189.46899
-0.89243001 -0.84592003 189.459
-0.76050502 -0.84588403 189.451
-0.62850702 -0.845734 189.418
-0.49660701 -0.84567201 189.40401
-0.36475101 -0.84566599 189.40199
-0.23283701 -0.84544301 189.35201
-0.101006 -0.84533399 189.328
0.16257399 -0.84522003 189.30299
0.294319 -0.84511101 189.278
0.426009 -0.84496099 189.244
0.55766702 -0.84483099 189.215
0.68940598 -0.84485197 189.22
0.82094902 -0.84466302 189.17799
0.95235401 -0.84440601 189.12
1.08395 -0.84436101 189.11
1.21573 -0.84445101 189.13
1.3472 -0.84432602 189.10201
1.47884 -0.84432799 189.103
1.61092 -0.84455502 189.153
1.74275 -0.84462899 189.17
1.8744 -0.84460902 189.166
2.0067201 -0.84487599 189.22501
2.1380301 -0.84470999 189.188
2.2698801 -0.84476602 189.201
2.4022601 -0.84499902 189.25301
2.5339501 -0.84498 189.24899
2.66628 -0.84516603 189.28999
2.7986 -0.84533 189.327
2.93031 -0.84530401 189.321
3.0625801 -0.84543401 189.35001
3.1951001 -0.84561998 189.392
3.3273101 -0.84571397 189.41299
3.45999 -0.84591502 189.45799
3.5922999 -0.846012 189.48
3.7244301 -0.846062 189.491
3.8575399 -0.84632403 189.55
3.9908299 -0.84660798 189.61301
4.1234999 -0.84674603 189.644
4.2568498 -0.847009 189.703
4.3899202 -0.84720403 189.74699
4.52283 -0.847359 189.78101
4.6563001 -0.84760398 189.836
4.7894702 -0.84778398 189.877
4.9229398 -0.84800601 189.92599
5.0570202 -0.84831798 189.996
5.1897101 -0.84838802 190.01199
5.3236499 -0.84865201 190.071
5.4586601 -0.84907198 190.16499
5.5918798 -0.849199 190.194
5.7249999 -0.84930497 190.217
5.85887 -0.84951401 190.26401
5.9931502 -0.849774 190.32201
6.1279402 -0.85009301 190.394
6.2625999 -0.85038 190.45799
6.3972998 -0.85066098 190.521
6.5324998 -0.850995 190.59599
6.6676502 -0.85131001 190.666
6.8021002 -0.85152602 190.715
6.9377999 -0.85188597 190.795
7.0760398 -0.85253799 190.94099
7.21627 -0.85340297 191.13499
7.3510799 -0.85360599 191.181
7.4906702 -0.85434699 191.347
7.6297102 -0.85500002 191.493
7.7688298 -0.85563999 191.636
7.9036298 -0.85579199 191.67
8.04006 -0.85611099 191.742
8.1774302 -0.85651797 191.83299
8.3193302 -0.85737902 192.026
8.45959 -0.85804701 192.175
8.5953197 -0.85824198 192.21899
8.7271299 -0.85804403 192.175
8.8594799 -0.85790497 192.144
8.9968996 -0.85825402 192.222
9.1376801 -0.85890901 192.368
9.2723799 -0.85898101 192.38499
9.5404196 -0.858998 192.388
9.6732798 -0.85890299 192.367
9.8071604 -0.85890001 192.366
9.9426899 -0.85903901 192.397
10.0748 -0.85888201 192.362
10.209 -0.85890698 192.368
10.3433 -0.85894001 192.375
10.4761 -0.858845 192.354
10.611 -0.85892898 192.373
10.7388 -0.85843498 192.26199
10.8648 -0.85781801 192.12399
10.9907 -0.85720599 191.987
11.1148 -0.85647398 191.823
11.2433 -0.85608399 191.73599
11.3692 -0.85551399 191.608
11.5028 -0.85553002 191.61099
11.6354 -0.85547698 191.60001
11.7701 -0.855573 191.621
11.9077 -0.85587198 191.688
12.6572 -0.88015002 197.12601
12.824 -0.882186 197.582
12.9734 -0.882994 197.763
13.2701 -0.884417 198.08099
13.4139 -0.88480902 198.16901
13.56 -0.88533998 198.28799
13.7096 -0.88608402 198.455
13.8541 -0.88649398 198.547
14.0033 -0.88718802 198.702
14.1478 -0.88757801 198.789
14.2951 -0.88813102 198.91299
14.4451 -0.88883501 199.071
14.5944 -0.889489 199.217
14.7426 -0.89006299 199.34599
14.8986 -0.89109403 199.577
15.0498 -0.89182001 199.739
15.2063 -0.89284998 199.97
15.3694 -0.89424002 200.28101
15.5297 -0.89543802 200.55
15.6962 -0.89697897 200.895
15.8627 -0.89848602 201.23199
16.031 -0.90007001 201.58701
-9.4277496 -0.73150003 194.11501
-9.2883902 -0.73116797 194.026
-9.14956 -0.73086703 193.94701
-9.0095501 -0.73046201 193.839
-8.8683395 -0.72994697 193.702
-8.72962 -0.72962302 193.617
-8.5905399 -0.729258 193.52
-8.4493198 -0.728697 193.371
-8.3086901 -0.72817099 193.231
-8.1686897 -0.72768199 193.101
-8.0290899 -0.72721398 192.97701
-7.8889399 -0.72667903 192.83501
-7.7495599 -0.726197 192.707
-7.61166 -0.72583997 192.61301
-7.4739399 -0.72548699 192.519
-7.3343201 -0.72493398 192.37199
-7.1953702 -0.724428 192.23801
-7.0562801 -0.72388798 192.095
-6.9158401 -0.72318602 191.908
-6.7765598 -0.722579 191.74699
-6.6394701 -0.722188 191.64301
-6.50207 -0.72174501 191.526
-6.3675098 -0.72160602 191.489
-6.23172 -0.72131801 191.41299
-6.0950599 -0.72091502 191.306
-5.8226399 -0.72016501 191.10699
-5.6860099 -0.71971101 190.98599
-5.5507302 -0.71940899 190.90601
-5.4172201 -0.71932799 190.88499
-5.2828898 -0.71913099 190.832
-5.14814 -0.71886599 190.76199
-5.01331 -0.71857399 190.685
-4.8793201 -0.718391 190.636
-4.7442198 -0.71802998 190.53999
-4.6110001 -0.71793997 190.51601
-4.47716 -0.71774697 190.465
-4.3435898 -0.71758503 190.422
-4.20929 -0.71728802 190.343
-4.0746598 -0.71691501 190.244
-3.9403801 -0.71658099 190.15601
-3.80726 -0.71644002 190.118
-3.6740301 -0.716268 190.073
-3.5415599 -0.71623898 190.065
-3.40886 -0.71615702 190.043
-3.27616 -0.71607101 190.02
-3.1432099 -0.71591902 189.98
-3.0095799 -0.71559101 189.89301
-2.74354 -0.715159 189.778
-2.60972 -0.71469402 189.655
-2.47697 -0.71448702 189.60001
-2.2114799 -0.71399599 189.47
-2.07936 -0.71392 189.45
-1.9476 -0.71396798 189.46201
-1.8157001 -0.71396703 189.46201
-1.68441 -0.71422303 189.53
-1.55249 -0.71423298 189.533
-1.4205 -0.71420997 189.526
-1.2887501 -0.714311 189.55299
-1.15677 -0.71429801 189.55
-1.02461 -0.71415597 189.51199
-0.89258897 -0.71408403 189.493
-0.76059902 -0.71401399 189.474
-0.62852502 -0.71381903 189.423
-0.496663 -0.71382701 189.425
-0.36476901 -0.71377599 189.411
-0.23284499 -0.71357697 189.358
-0.101014 -0.71351701 189.343
0.0307962 -0.71349502 189.33701
0.162596 -0.713462 189.328
0.29438999 -0.71344602 189.32401
0.426137 -0.71336102 189.30099
0.55784601 -0.71326703 189.276
0.68963999 -0.71329802 189.284
0.82115698 -0.71307701 189.226
0.95265901 -0.71290702 189.181
1.08437 -0.71291202 189.18201
1.21609 -0.71292597 189.186
1.34752 -0.71278298 189.14799
1.47913 -0.712753 189.14
1.6110899 -0.71288103 189.174
1.74278 -0.71287799 189.173
1.8746099 -0.71292901 189.186
2.0069699 -0.71316397 189.24899
2.1384799 -0.71308398 189.228
2.2702 -0.71308202 189.22701
2.40256 -0.71327001 189.27699
2.53423 -0.71324301 189.27
2.6666 -0.713404 189.313
2.7988801 -0.71352899 189.34599
2.93047 -0.713476 189.332
3.0627999 -0.71359903 189.364
3.19556 -0.71380597 189.41901
3.3278699 -0.71390301 189.44501
3.46035 -0.71402502 189.47701
3.59267 -0.714109 189.5
3.7248299 -0.71415401 189.51199
3.8580401 -0.71439099 189.575
3.99157 -0.71467 189.649
4.1241999 -0.71477598 189.677
4.25776 -0.715029 189.744
4.3902001 -0.715087 189.759
4.5234699 -0.715271 189.808
4.65698 -0.71548301 189.864
4.7902298 -0.71564299 189.907
4.9237499 -0.71583498 189.95799
5.05797 -0.716115 190.032
5.1903901 -0.716133 190.037
5.3239102 -0.71629798 190.08099
5.4588399 -0.71664 190.17101
5.5924301 -0.71679401 190.21201
5.7258401 -0.71691799 190.245
5.8596301 -0.71708399 190.289
5.9942498 -0.71734101 190.35699
6.1283798 -0.71753001 190.407
6.2634201 -0.71781403 190.483
6.3982401 -0.718063 190.549
6.5335302 -0.71835297 190.62601
6.66785 -0.71852702 190.672
6.9386001 -0.71907401 190.817
7.0767398 -0.71961403 190.961
7.35184 -0.72051799 191.2
7.49121 -0.72112101 191.36
7.6299701 -0.72164601 191.5
7.7680702 -0.72209001 191.618
7.9050899 -0.722422 191.70599
8.0419903 -0.72273099 191.78799
8.1800804 -0.72313601 191.895
8.3230896 -0.72395498 192.11301
8.4623899 -0.72443098 192.239
8.72754 -0.72422302 192.18401
8.8589201 -0.72402698 192.132
8.9927101 -0.72403002 192.132
9.1296396 -0.72428101 192.19901
9.2681103 -0.72464699 192.29601
9.4033098 -0.72474998 192.323
9.5383997 -0.724841 192.34801
9.6732502 -0.72491199 192.366
9.8084402 -0.72500598 192.39101
9.9430599 -0.72505599 192.405
10.0773 -0.72507399 192.41
10.2117 -0.72510999 192.41901
10.346 -0.72513598 192.42599
10.4782 -0.72501498 192.394
10.6095 -0.724832 192.345
10.7392 -0.72455001 192.27
10.8667 -0.724123 192.157
10.9926 -0.72360599 192.02
11.1163 -0.72295803 191.84801
11.2445 -0.722615 191.757
11.3722 -0.72224599 191.659
11.5056 -0.72224402 191.658
11.6371 -0.72212398 191.627
11.7751 -0.72240603 191.701
11.9116 -0.72259599 191.752
12.0536 -0.72310603 191.88699
12.6538 -0.74264801 197.073
12.8236 -0.74454498 197.576
12.9733 -0.745242 197.761
13.2711 -0.74650401 198.09599
13.4165 -0.746921 198.207
13.5625 -0.747365 198.325
13.7088 -0.747814 198.444
13.8562 -0.74831098 198.576
14.0049 -0.74887002 198.724
14.1505 -0.74925399 198.826
14.2966 -0.74966002 198.93401
14.5951 -0.75076699 199.22701
14.744 -0.75128698 199.36501
14.9011 -0.75220901 199.61
15.0525 -0.75283599 199.776
15.2095 -0.75372303 200.01199
15.3697 -0.75475299 200.285
15.53 -0.75576502 200.554
15.6972 -0.75709599 200.907
15.8659 -0.75847602 201.27299
16.0338 -0.75979102 201.62199
-9.2894497 -0.59609097 194.049
-9.1500702 -0.59581202 193.95799
-9.0104504 -0.59550798 193.85899
-8.7307196 -0.59483898 193.64101
-8.5911303 -0.59450698 193.533
-8.4512396 -0.59414399 193.41499
-8.3099699 -0.59367198 193.261
-8.1695299 -0.593243 193.121
-8.0295801 -0.59283602 192.989
-7.8888302 -0.59235501 192.832
-7.7491698 -0.591941 192.698
-7.47264 -0.59129 192.485
-7.3333602 -0.590864 192.347
-7.1947899 -0.59048098 192.222
-7.0557799 -0.590047 192.08099
-6.9155502 -0.58949202 191.89999
-6.7768898 -0.58905101 191.757
-6.6396899 -0.58872199 191.64999
-6.5022202 -0.58835602 191.53101
-6.3674998 -0.58822799 191.489
-6.2316298 -0.58798599 191.41
-6.0950098 -0.58766103 191.304
-5.8222799 -0.58701801 191.095
-5.6855202 -0.58663303 190.97
-5.5507398 -0.58643901 190.90601
-5.4172602 -0.58637601 190.886
-5.28304 -0.58622903 190.838
-5.1483898 -0.58602297 190.771
-5.0135002 -0.58578002 190.692
-4.8793802 -0.58561498 190.638
-4.7446198 -0.58536202 190.556
-4.6111202 -0.58525598 190.521
-4.4773798 -0.58511102 190.474
-4.3435602 -0.58494598 190.42101
-4.2090001 -0.58466899 190.33
-4.0742698 -0.58434898 190.226
-3.94034 -0.584126 190.153
-3.8071899 -0.58400798 190.11501
-3.6740999 -0.58389002 190.077
-3.5416901 -0.58387399 190.07201
-3.40906 -0.583821 190.054
-3.27634 -0.58374703 190.03
-3.14398 -0.58373499 190.026
-3.01073 -0.58354801 189.965
-2.8777201 -0.58339399 189.91499
-2.74509 -0.58330399 189.886
-2.61165 -0.58302599 189.795
-2.47837 -0.582753 189.70599
-2.34602 -0.58268201 189.68401
-2.0803001 -0.58222902 189.536
-1.94839 -0.58223701 189.539
-1.81639 -0.58222401 189.534
-1.68493 -0.582389 189.588
-1.55281 -0.58233798 189.571
-1.4209 -0.582362 189.57899
-1.28907 -0.58242899 189.601
-1.15701 -0.58239597 189.59
-1.02491 -0.58232498 189.567
-0.89275402 -0.582205 189.528
-0.76071203 -0.58212698 189.50301
-0.62858099 -0.58193398 189.44
-0.496667 -0.58189201 189.42599
-0.36476201 -0.58183497 189.408
-0.232839 -0.58166999 189.354
-0.101014 -0.58163702 189.343
0.0307952 -0.58160001 189.33099
0.162598 -0.58159697 189.33
0.294431 -0.58165902 189.35001
0.42620099 -0.581595 189.33
0.55791998 -0.58150798 189.30099
0.68975103 -0.58154899 189.315
0.821437 -0.58147401 189.28999
0.95298302 -0.58133501 189.245
1.0848401 -0.58139402 189.26401
1.21647 -0.58133298 189.244
1.3480099 -0.58124602 189.216
1.47969 -0.58123201 189.211
1.61145 -0.58124399 189.215
1.74296 -0.581173 189.192
1.87494 -0.58126003 189.22099
2.0073299 -0.581451 189.283
2.1389201 -0.581402 189.267
2.2706201 -0.58138698 189.26199
2.4030099 -0.58153999 189.312
2.53474 -0.58152699 189.30701
2.66698 -0.58162701 189.34
2.7994499 -0.58176303 189.384
2.9307899 -0.58166403 189.35201
3.0629399 -0.58172798 189.373
3.19607 -0.581963 189.44901
3.3282101 -0.58200902 189.464
3.46087 -0.58213699 189.506
3.5931101 -0.582187 189.522
3.7254901 -0.58225799 189.545
3.8587401 -0.58245301 189.60899
3.9919701 -0.58263397 189.668
4.1245399 -0.582708 189.692
4.2579398 -0.58289301 189.752
4.3905702 -0.582964 189.77499
4.5240002 -0.583134 189.83099
4.6574402 -0.58329499 189.883
4.79076 -0.58343297 189.92799
4.9246302 -0.58362901 189.992
5.0590601 -0.58387798 190.073
5.1914401 -0.58388501 190.075
5.32482 -0.58400202 190.11301
5.4595499 -0.58425701 190.196
5.5928798 -0.58435303 190.228
5.72685 -0.58451098 190.27901
5.8604698 -0.58462602 190.31599
5.9949002 -0.58481598 190.37801
6.12922 -0.58498597 190.433
6.26442 -0.58523202 190.51401
6.3989701 -0.58540797 190.571
6.5345998 -0.58567297 190.657
6.6690602 -0.58582598 190.707
6.8043399 -0.586043 190.77699
6.9401102 -0.58629298 190.85899
7.07762 -0.58667803 190.98399
7.2148099 -0.58702302 191.09599
7.3518901 -0.587345 191.202
7.4904399 -0.58777303 191.341
7.6302099 -0.58827901 191.506
7.7678099 -0.58860397 191.61099
7.9057598 -0.58894402 191.722
8.0435305 -0.58925903 191.82401
8.18295 -0.589683 191.96201
8.3273401 -0.59044498 192.211
8.4643002 -0.59066498 192.282
8.5994396 -0.59075302 192.311
8.7297401 -0.59051102 192.23199
8.8601999 -0.59028703 192.159
8.9937801 -0.59027499 192.155
9.1275101 -0.59027201 192.15401
9.2637997 -0.590433 192.207
9.4006901 -0.59062701 192.27
9.5356302 -0.59069401 192.29201
9.6707602 -0.59077102 192.317
9.8075399 -0.59094697 192.37399
9.9438601 -0.59108901 192.42
10.0785 -0.59113002 192.43401
10.2141 -0.59122199 192.463
10.3482 -0.59122998 192.466
10.4809 -0.59115797 192.44299
10.612 -0.59099603 192.39
10.7393 -0.59063399 192.272
10.8652 -0.59020197 192.132
10.9936 -0.58991599 192.03799
11.1198 -0.58951497 191.908
11.2471 -0.58918703 191.80099
11.3755 -0.588925 191.716
11.5067 -0.58880401 191.67599
11.6391 -0.588754 191.66
11.7759 -0.58892298 191.715
11.9144 -0.58917302 191.797
12.0544 -0.58948898 191.899
12.651 -0.60524797 197.02901
12.8243 -0.60696101 197.58701
12.9732 -0.60749298 197.75999
13.1243 -0.60811198 197.96201
13.2733 -0.60862499 198.129
13.4192 -0.60898799 198.24699
13.565 -0.60933799 198.36099
13.7111 -0.60969198 198.476
13.858 -0.61007899 198.60201
14.0049 -0.61045599 198.72501
14.1512 -0.610798 198.836
14.2973 -0.61112601 198.94299
14.4498 -0.61172003 199.136
14.5972 -0.612086 199.256
14.7462 -0.61251599 199.395
14.9038 -0.61328799 199.647
15.0563 -0.613837 199.826
15.2131 -0.61455202 200.058
15.3717 -0.61532903 200.311
15.5308 -0.616108 200.565
15.6957 -0.6171 200.888
15.8669 -0.618321 201.285
16.034901 -0.61939901 201.636
-9.29387 -0.46114999 194.14101
-9.1521902 -0.46082199 194.00301
-9.0123997 -0.46057999 193.901
-8.8720503 -0.46030101 193.783
-8.7318401 -0.460022 193.666
-8.5915899 -0.45973101 193.543
-8.4519901 -0.45946699 193.43201
-8.3111 -0.45912299 193.287
-8.1702995 -0.458772 193.13901
-8.0299101 -0.458433 192.99699
-7.8889198 -0.45804799 192.83501
-7.7488599 -0.45770401 192.69
-7.6099401 -0.45741701 192.569
-7.4710302 -0.45712 192.444
-7.3320098 -0.45680499 192.312
-7.1939001 -0.45653701 192.198
-7.05548 -0.456238 192.073
-6.91608 -0.455863 191.91499
-6.7776399 -0.455538 191.778
-6.6396499 -0.45523101 191.649
-6.5022001 -0.45494801 191.53
-6.36761 -0.45485899 191.492
-6.23176 -0.45467299 191.414
-6.0951099 -0.45442 191.30701
-5.9586301 -0.45416901 191.202
-5.8222899 -0.45391601 191.095
-5.6853499 -0.45360401 190.964
-5.55092 -0.453482 190.91299
-5.4170098 -0.45339799 190.877
-5.2831302 -0.45331299 190.841
-5.14817 -0.453127 190.763
-5.0131698 -0.45292801 190.679
-4.8789802 -0.45279399 190.623
-4.7448401 -0.452656 190.565
-4.6113601 -0.45257699 190.53101
-4.4773798 -0.45244101 190.474
-4.3435798 -0.452315 190.42101
-4.2087102 -0.452068 190.317
-4.0742898 -0.45185399 190.22701
-3.9405301 -0.45170099 190.16299
-3.8072801 -0.45159799 190.119
-3.6742599 -0.451516 190.08501
-3.5418 -0.451498 190.077
-3.4097099 -0.45153099 190.091
-3.2766099 -0.45142499 190.04601
-3.1442201 -0.45141199 190.041
-3.0114501 -0.45133999 190.011
-2.87833 -0.45120901 189.955
-2.7458701 -0.45117101 189.94
-2.47966 -0.45085299 189.806
-2.34694 -0.45074001 189.758
-2.2137101 -0.45051 189.661
-1.94915 -0.450396 189.61301
-1.81705 -0.45037001 189.60201
-1.68542 -0.45046699 189.64301
-1.5533 -0.45043799 189.631
-1.4213099 -0.450445 189.634
-1.28949 -0.45051399 189.66299
-1.15733 -0.45046401 189.642
-1.02519 -0.45041299 189.621
-0.892878 -0.45025599 189.554
-0.760849 -0.450214 189.537
-0.62865299 -0.45003501 189.46201
-0.49670899 -0.44999 189.44299
-0.364766 -0.449913 189.41
-0.232832 -0.44976699 189.34801
-0.101015 -0.44975799 189.345
0.0307962 -0.44973901 189.33701
0.162606 -0.44974601 189.34
0.29443401 -0.44977501 189.35201
0.4262 -0.44972101 189.32899
0.55791599 -0.449651 189.3
0.68985498 -0.449754 189.343
0.82160997 -0.44972399 189.33
0.95319802 -0.44962201 189.28799
1.0851099 -0.44968101 189.312
1.21673 -0.449619 189.286
1.34843 -0.44959301 189.27499
1.48037 -0.44964701 189.298
1.7432801 -0.44947901 189.22701
1.87554 -0.44960701 189.28101
2.0076201 -0.44967699 189.311
2.13908 -0.449606 189.28101
2.2709799 -0.44963399 189.29201
2.40343 -0.44975999 189.345
2.53513 -0.44973999 189.33701
2.6674399 -0.44982401 189.373
2.7999001 -0.44992399 189.41499
2.9310999 -0.44982401 189.37199
3.0632701 -0.449873 189.39301
3.1963301 -0.45004401 189.465
3.3286901 -0.45010701 189.492
3.46153 -0.45022699 189.54201
3.5936899 -0.45025399 189.55299
3.7262499 -0.450326 189.584
3.8596499 -0.45049199 189.65401
3.9928701 -0.45062599 189.71001
4.1247902 -0.450611 189.70399
4.2580099 -0.45073301 189.755
4.3909602 -0.45082 189.79201
4.5243802 -0.45094901 189.84599
4.6580501 -0.45109501 189.908
4.7911301 -0.45117801 189.94299
4.9255099 -0.45137501 190.026
5.06002 -0.45157301 190.10899
5.1923699 -0.451574 190.10899
5.3259802 -0.45168099 190.15401
5.46029 -0.451841 190.222
5.5936999 -0.451922 190.256
5.7279401 -0.45206299 190.315
5.8614998 -0.45214501 190.35001
5.9952202 -0.45223701 190.388
6.1298499 -0.452391 190.453
6.2650299 -0.45257801 190.532
6.3997302 -0.45272401 190.593
6.5354099 -0.452932 190.681
6.6701999 -0.453071 190.739
6.8059502 -0.45326799 190.823
6.9416499 -0.453455 190.901
7.0786099 -0.45371601 191.011
7.2149401 -0.45392701 191.10001
7.3518701 -0.45416799 191.201
7.4904399 -0.45449901 191.341
7.6291399 -0.45482701 191.479
7.7670598 -0.455098 191.593
7.9068398 -0.45546699 191.748
8.0452299 -0.45574501 191.86501
8.1859798 -0.45614401 192.033
8.4657803 -0.45681599 192.31599
8.5987902 -0.45676899 192.29601
8.7319698 -0.45673299 192.28101
8.8629398 -0.45658401 192.21899
8.9967804 -0.456586 192.21899
9.1315403 -0.456633 192.239
9.2646599 -0.456599 192.22501
9.4001102 -0.45667699 192.258
9.5335398 -0.45665801 192.25
9.6691999 -0.45674399 192.286
9.80548 -0.456857 192.33299
9.9420204 -0.45697901 192.38499
10.0776 -0.457055 192.41701
10.4808 -0.457111 192.44
10.6111 -0.45695201 192.373
10.7381 -0.45666099 192.25101
10.8639 -0.456323 192.108
10.993 -0.45613 192.02699
11.1217 -0.455926 191.942
11.2507 -0.45574 191.86301
11.3795 -0.45554999 191.783
11.51 -0.45543 191.73199
11.6423 -0.455385 191.714
11.7788 -0.455502 191.763
11.9168 -0.455672 191.834
12.056 -0.455888 191.92599
12.648 -0.46790299 196.983
12.824 -0.46932301 197.58099
12.9734 -0.46975401 197.763
13.126 -0.47028601 197.987
13.2749 -0.47067899 198.15199
13.4213 -0.47097701 198.278
13.5681 -0.47128001 198.405
13.7142 -0.47155499 198.521
13.8614 -0.471861 198.64999
14.0059 -0.47207299 198.739
14.1524 -0.47234499 198.854
14.2998 -0.47264099 198.978
14.4515 -0.47307 199.159
14.5993 -0.47336799 199.284
14.7491 -0.47372499 199.435
14.9066 -0.474318 199.68401
15.0606 -0.474792 199.884
15.2162 -0.47530401 200.099
15.3743 -0.47588599 200.34399
15.5326 -0.47646499 200.588
15.6952 -0.47716299 200.882
15.8664 -0.47810799 201.28
16.0364 -0.47899801 201.655
-9.4454098 -0.326493 194.478
-9.3003397 -0.32615301 194.276
-9.1573 -0.325876 194.11099
-9.0158195 -0.325647 193.974
-8.87391 -0.325394 193.82401
-8.7339802 -0.32520801 193.713
-8.5929499 -0.32497501 193.57401
-8.4519396 -0.324734 193.431
-8.3112602 -0.32449901 193.291
-8.1709099 -0.324269 193.15401
-8.0303497 -0.32402301 193.007
-7.8893199 -0.32374999 192.84399
-7.74897 -0.323495 192.69299
-7.61024 -0.3233 192.577
-7.4711299 -0.323082 192.44701
-7.3315001 -0.322833 192.298
-7.19346 -0.32264599 192.187
-7.0553598 -0.322449 192.069
-6.9166298 -0.32221499 191.92999
-6.77807 -0.32198 191.78999
-6.6399298 -0.32175601 191.657
-6.5023298 -0.321549 191.534
-6.3678198 -0.32148999 191.498
-6.2316899 -0.321345 191.412
-6.09552 -0.32119101 191.32001
-5.9591398 -0.32101899 191.218
-5.82233 -0.32081601 191.097
-5.6855202 -0.32060301 190.97
-5.5508699 -0.32050401 190.911
-5.4168801 -0.32043901 190.873
-5.2831202 -0.32038599 190.841
-5.1479101 -0.32023901 190.75301
-5.0128798 -0.32009599 190.668
-4.87849 -0.31998801 190.603
-4.7448101 -0.31992099 190.564
-4.6112399 -0.31985801 190.526
-4.4772601 -0.31976199 190.46899
-4.3434701 -0.31967399 190.41701
-4.2084999 -0.319491 190.308
-4.0743499 -0.31935999 190.23
-3.9404099 -0.31923801 190.157
-3.8071699 -0.319166 190.114
-3.6744299 -0.319132 190.09399
-3.54182 -0.319107 190.07899
-3.4096899 -0.31912401 190.089
-3.27651 -0.319042 190.03999
-3.01179 -0.319029 190.032
-2.8789201 -0.31896499 189.994
-2.74648 -0.31894401 189.98199
-2.6138799 -0.31890199 189.957
-2.4812801 -0.318856 189.929
-2.3481801 -0.318737 189.858
-2.2148199 -0.31856501 189.756
-2.0824699 -0.318528 189.73399
-1.9500999 -0.31848001 189.705
-1.81785 -0.31844801 189.686
-1.68608 -0.31850001 189.718
-1.5538 -0.318459 189.69299
-1.4217 -0.31844801 189.686
-1.28987 -0.318501 189.718
-1.15759 -0.31844401 189.68401
-1.02546 -0.31841901 189.66901
-0.89310801 -0.318308 189.603
-0.76097202 -0.318248 189.567
-0.62875003 -0.31812 189.491
-0.49677899 -0.31808299 189.46899
-0.36480501 -0.31801799 189.42999
-0.232849 -0.31790301 189.362
-0.101015 -0.31787401 189.345
0.0307969 -0.31786901 189.342
0.294415 -0.317866 189.34
0.42618099 -0.31783399 189.321
0.55790597 -0.317794 189.297
0.68987602 -0.31788099 189.349
0.82173401 -0.31789801 189.35899
0.95330203 -0.31781301 189.308
1.08524 -0.317857 189.334
1.21697 -0.31783801 189.323
1.3487 -0.31782201 189.313
1.48074 -0.31787601 189.345
1.61238 -0.31784201 189.325
1.74368 -0.31775099 189.271
1.87596 -0.317839 189.32401
2.0079999 -0.31787699 189.34599
2.1393099 -0.31780201 189.30099
2.2712801 -0.31782901 189.31799
2.40365 -0.317904 189.362
2.53543 -0.31789801 189.35899
2.6679499 -0.31798199 189.409
2.8001001 -0.31801501 189.429
2.93136 -0.317949 189.38901
3.0636699 -0.31799701 189.418
3.19678 -0.318122 189.492
3.3292899 -0.318178 189.526
3.4619501 -0.31824401 189.565
3.5942199 -0.31827101 189.58099
3.72679 -0.318322 189.612
3.86058 -0.31846899 189.69901
3.9933801 -0.31852901 189.73399
4.1256399 -0.31854299 189.743
4.2590098 -0.31863901 189.8
4.3916702 -0.31867701 189.823
4.5251799 -0.318773 189.88
4.65905 -0.31888801 189.948
4.7919898 -0.31893501 189.97701
4.92624 -0.31906399 190.054
5.1932302 -0.31921101 190.14101
5.46135 -0.31940901 190.259
5.5948501 -0.319469 190.295
5.7294402 -0.31958699 190.36501
5.8629699 -0.31964201 190.39799
5.99614 -0.319675 190.41701
6.1308498 -0.319787 190.48399
6.2659502 -0.319915 190.56
6.4009099 -0.32003 190.629
6.5363302 -0.32016301 190.70799
6.6715498 -0.320281 190.778
6.8066301 -0.32038799 190.842
6.9429302 -0.32054701 190.937
7.0802202 -0.32074401 191.054
7.2157202 -0.320856 191.12
7.3529401 -0.32103801 191.229
7.4918499 -0.32128599 191.377
7.6287699 -0.32144099 191.46899
7.7687402 -0.32171801 191.634
7.90905 -0.32199901 191.802
8.0476503 -0.322202 191.923
8.18962 -0.322532 192.119
8.3311701 -0.32283401 192.299
8.4661903 -0.322878 192.325
8.6006699 -0.3229 192.338
8.7333603 -0.32285601 192.312
8.8669901 -0.32284701 192.306
9.13867 -0.32298601 192.38901
9.2673101 -0.32280099 192.27901
9.4011898 -0.32280201 192.28
9.5362902 -0.322844 192.30499
9.6701298 -0.32284299 192.304
9.8049297 -0.32287401 192.323
9.9401503 -0.32291701 192.34801
10.0754 -0.32295999 192.37399
10.2098 -0.32297501 192.383
10.3442 -0.32299101 192.39301
10.4756 -0.32291099 192.34399
10.6087 -0.32288799 192.33099
10.7381 -0.322752 192.25
10.8657 -0.32256699 192.14
10.9937 -0.32239899 192.03999
11.1233 -0.32227999 191.96899
11.2511 -0.32211399 191.87
11.3808 -0.32200199 191.80299
11.5115 -0.32192501 191.758
11.6458 -0.32194799 191.771
11.7817 -0.32201299 191.81
11.9196 -0.32213101 191.88
12.0607 -0.32233199 192
12.647 -0.330672 196.968
12.8236 -0.33169201 197.575
12.9741 -0.33202499 197.77299
13.1281 -0.33243799 198.02
13.2773 -0.33272201 198.189
13.5705 -0.33314699 198.442
13.7162 -0.33332899 198.55099
13.8624 -0.33352199 198.666
14.0086 -0.33371001 198.77699
14.1547 -0.333891 198.88499
14.3032 -0.33412701 199.026
14.4539 -0.334407 199.192
14.6018 -0.33462 199.319
14.9066 -0.335233 199.68401
15.0608 -0.33557099 199.886
15.2181 -0.335971 200.12399
15.3764 -0.336386 200.371
15.6948 -0.33723399 200.87601
15.8691 -0.33796901 201.314
16.040501 -0.33862799 201.707
-9.7456903 -0.191614 195.069
-9.5987701 -0.191392 194.843
-9.4537001 -0.191201 194.649
-9.3077497 -0.19098701 194.431
-9.1637096 -0.190806 194.24699
-8.8775597 -0.190469 193.90401
-8.5944901 -0.19017901 193.60899
-8.4526901 -0.19002201 193.448
-8.3119497 -0.18988299 193.30701
-8.17099 -0.189735 193.15601
-8.0299301 -0.189579 192.99699
-7.88941 -0.189431 192.847
-7.7488499 -0.18927699 192.69
-7.6101499 -0.189163 192.57401
-7.47085 -0.189031 192.439
-7.3309598 -0.188878 192.284
-7.1929698 -0.18877 192.174
-7.0552402 -0.188664 192.06599
-6.9169598 -0.18854 191.939
-6.7785201 -0.18840601 191.80299
-6.6399698 -0.188263 191.658
-6.5032301 -0.18816701 191.56
-6.36799 -0.18811201 191.504
-6.2318401 -0.188026 191.416
-6.0956802 -0.18793599 191.325
-5.9595098 -0.187842 191.23
-5.8228798 -0.18773 191.11501
-5.68571 -0.187593 190.976
-5.55126 -0.187543 190.924
-5.4169598 -0.18749399 190.875
-5.2825999 -0.187442 190.82201
-5.14817 -0.18738399 190.763
-5.0130901 -0.187299 190.67599
-4.8785701 -0.187231 190.60699
-4.74476 -0.187187 190.562
-4.6108899 -0.18713699 190.51199
-4.4767699 -0.187075 190.448
-4.3428898 -0.18701901 190.39101
-4.20821 -0.186924 190.295
-4.0741 -0.186849 190.218
-3.9401801 -0.18677799 190.146
-3.80691 -0.18673401 190.101
-3.67433 -0.186721 190.088
-3.5415599 -0.186698 190.065
-3.4091201 -0.186691 190.058
-3.2764399 -0.18667001 190.036
-3.0122099 -0.186692 190.05901
-2.8792901 -0.186653 190.019
-2.7470801 -0.186657 190.02299
-2.61498 -0.186671 190.037
-2.48208 -0.186625 189.991
-2.3491399 -0.186571 189.936
-2.21614 -0.186506 189.869
-2.0835099 -0.18646599 189.828
-1.95105 -0.186436 189.798
-1.81873 -0.186417 189.778
-1.68663 -0.186418 189.77901
-1.55425 -0.186386 189.74699
-1.15785 -0.18636701 189.728
-1.02569 -0.186352 189.713
-0.893314 -0.186288 189.647
-0.76107001 -0.186234 189.592
-0.62884402 -0.18616199 189.519
-0.49684599 -0.186138 189.495
-0.36486799 -0.18610699 189.463
-0.232894 -0.18604399 189.39799
-0.101023 -0.186005 189.35899
0.0307958 -0.18598101 189.33501
0.16258 -0.185957 189.31
0.29437301 -0.18595999 189.313
0.42613101 -0.185945 189.298
0.55784601 -0.18592399 189.276
0.68977702 -0.185968 189.32201
0.82171297 -0.186 189.354
0.95333302 -0.18596099 189.315
1.08535 -0.18599901 189.353
1.21708 -0.185987 189.34
1.34865 -0.18595301 189.306
1.4807 -0.185987 189.34
1.6126601 -0.186004 189.358
1.7439899 -0.18595099 189.304
1.8762701 -0.186 189.354
2.00828 -0.18601801 189.373
2.1396201 -0.185975 189.32899
2.2715399 -0.185985 189.338
2.4037299 -0.18601499 189.369
2.53543 -0.186005 189.35899
2.6682899 -0.186077 189.433
2.80019 -0.186079 189.43401
2.9315901 -0.186049 189.40401
3.0643799 -0.186106 189.46201
3.19734 -0.186168 189.52499
3.3295 -0.18618 189.53799
3.4623599 -0.18622901 189.588
3.5948601 -0.18625601 189.61501
3.7272601 -0.186276 189.63499
3.8611 -0.186364 189.72501
3.9937301 -0.18639 189.75101
4.1261802 -0.186406 189.76801
4.25951 -0.18646 189.82201
4.3922 -0.186483 189.84599
4.5258002 -0.186542 189.90601
4.6598101 -0.18661501 189.98
4.7929602 -0.18664899 190.015
4.92697 -0.18671501 190.082
5.0617199 -0.18680499 190.173
5.1943402 -0.186813 190.181
5.3289499 -0.18689001 190.25999
5.4623699 -0.186924 190.29401
5.59584 -0.186957 190.328
5.7313299 -0.18705399 190.427
5.8655601 -0.187108 190.48199
5.99828 -0.18711101 190.485
6.1325498 -0.187162 190.537
6.2678299 -0.187241 190.617
6.4029198 -0.18731099 190.688
6.5369701 -0.18734799 190.726
6.6725101 -0.187426 190.806
6.8074098 -0.187483 190.86301
6.9441099 -0.18758599 190.96899
7.0805998 -0.18768001 191.065
7.2164798 -0.187755 191.14101
7.35395 -0.187868 191.255
7.4924798 -0.188003 191.39301
7.6300702 -0.18810999 191.502
7.77144 -0.18830501 191.701
7.9127998 -0.188494 191.89301
8.0520802 -0.188627 192.028
8.1935797 -0.188807 192.21201
8.3314199 -0.188899 192.30499
8.4660196 -0.188915 192.321
8.60217 -0.18896399 192.37199
8.7363195 -0.18897 192.377
8.8691702 -0.18894701 192.354
9.00389 -0.18896399 192.371
9.1399899 -0.189009 192.41701
9.4061403 -0.18897399 192.381
9.54212 -0.189014 192.423
9.8062601 -0.188942 192.349
9.9412498 -0.188962 192.37
10.0744 -0.18894701 192.354
10.2064 -0.188913 192.319
10.3396 -0.188899 192.30499
10.4707 -0.18885 192.255
10.6038 -0.18883701 192.242
10.7331 -0.188757 192.161
10.8654 -0.188731 192.134
10.9947 -0.188655 192.056
11.1249 -0.188596 191.996
11.2535 -0.18851 191.91
11.5175 -0.18845899 191.858
11.6497 -0.188437 191.834
11.7848 -0.18846101 191.86
12.0655 -0.188674 192.076
12.6467 -0.193473 196.96201
12.8245 -0.194089 197.589
12.975 -0.19428299 197.786
13.129 -0.194525 198.033
13.2789 -0.194701 198.21201
13.4271 -0.194849 198.36301
13.5719 -0.194947 198.46201
13.7194 -0.195079 198.597
13.8655 -0.195189 198.709
14.0116 -0.195298 198.82001
14.1566 -0.195389 198.912
14.3053 -0.195529 199.05499
14.4547 -0.195676 199.20399
14.6048 -0.19582801 199.35899
14.7557 -0.195989 199.524
14.9089 -0.19617701 199.714
15.0617 -0.196357 199.89799
15.2183 -0.196582 200.127
15.3766 -0.196825 200.37399
15.6954 -0.197326 200.88499
15.8694 -0.197752 201.31799
16.0448 -0.19818801 201.761
-9.89608 -0.055825401 195.35699
-9.7508898 -0.055772901 195.173
-9.6062803 -0.055722199 194.996
-9.4597397 -0.055658702 194.77299
-9.3143997 -0.055600502 194.57001
-9.0260201 -0.055493001 194.194
-8.8818502 -0.055436902 193.99699
-8.7383099 -0.055383101 193.80901
-8.5965099 -0.0553388 193.65401
-8.4549398 -0.0552947 193.5
-8.3131504 -0.055247501 193.33501
-8.17132 -0.055198699 193.164
-8.0305901 -0.055155698 193.013
-7.88977 -0.0551106 192.855
-7.7487898 -0.055062801 192.688
-7.60955 -0.055025902 192.55901
-7.47084 -0.054991599 192.439
-7.3320999 -0.054955799 192.314
-7.19383 -0.054922398 192.19701
-7.0558 -0.0548894 192.082
-6.91681 -0.054847602 191.935
-6.7785802 -0.0548103 191.80499
-6.6406498 -0.054774001 191.67799
-6.5033002 -0.054741099 191.562
-6.36795 -0.0547239 191.502
-6.2314601 -0.054696001 191.405
-6.0956898 -0.0546734 191.326
-5.9597201 -0.0546479 191.23599
-5.8232098 -0.054616202 191.125
-5.6865602 -0.054581601 191.004
-5.55193 -0.054565299 190.94701
-5.4172602 -0.054547802 190.886
-5.2825398 -0.054528899 190.82001
-5.1480598 -0.054511499 190.759
-5.0132699 -0.054489899 190.683
-4.8787098 -0.0544696 190.612
-4.7445502 -0.054452799 190.554
-4.61058 -0.054437201 190.49899
-4.47644 -0.054418702 190.43401
-4.3425102 -0.054401699 190.375
-4.2079501 -0.054375399 190.283
-4.0740299 -0.054356001 190.215
-3.9402399 -0.054337099 190.149
-3.8071899 -0.054327499 190.11501
-3.6744399 -0.054321501 190.09399
-3.5416801 -0.0543149 190.071
-3.40908 -0.054310501 190.05499
-3.27618 -0.054300699 190.021
-3.1444199 -0.054309599 190.05299
-3.0123501 -0.054313902 190.067
-2.8794799 -0.054303501 190.03101
-2.74719 -0.054303601 190.03101
-2.61567 -0.054319501 190.08701
-2.4821999 -0.054294601 190
-2.3496699 -0.0542886 189.979
-2.2172 -0.054283101 189.96001
-2.08448 -0.0542707 189.916
-1.95175 -0.054256398 189.866
-1.81952 -0.054254599 189.86
-1.68714 -0.054247901 189.83701
-1.5547 -0.054237999 189.802
-1.42251 -0.054235801 189.79401
-1.29036 -0.0542349 189.791
-1.15807 -0.0542267 189.76199
-1.02586 -0.054221299 189.743
-0.89354098 -0.0542075 189.69501
-0.76120102 -0.054187302 189.625
-0.62901801 -0.054172199 189.57201
-0.49695101 -0.054161701 189.535
-0.36495301 -0.0541538 189.507
-0.232952 -0.054136101 189.44501
-0.101046 -0.054124001 189.403
0.0307981 -0.054108601 189.349
0.162578 -0.054096501 189.30701
0.29434699 -0.054093499 189.29601
0.426085 -0.054088298 189.278
0.55775702 -0.054079201 189.246
0.68960798 -0.054087602 189.276
0.82162499 -0.054104201 189.334
0.95330501 -0.054097101 189.30901
1.0854 -0.054112598 189.36301
1.21703 -0.0541039 189.33299
1.34851 -0.054090701 189.287
1.48054 -0.054099999 189.319
1.61259 -0.054108702 189.349
1.74402 -0.054096799 189.308
1.87646 -0.054115701 189.37399
2.0084701 -0.054120399 189.39
2.13972 -0.0541053 189.33701
2.2717099 -0.054109599 189.353
2.404 -0.054120399 189.39
2.5358701 -0.054120898 189.392
2.6686001 -0.054138798 189.455
2.80072 -0.054143298 189.47
2.9321699 -0.054134902 189.44099
3.0648 -0.0541481 189.487
3.19765 -0.0541641 189.543
3.3302 -0.054173902 189.578
3.46295 -0.054185901 189.62
3.59565 -0.054196399 189.65601
3.72789 -0.054199498 189.66701
3.8615401 -0.0542222 189.74699
3.9939699 -0.054226801 189.763
4.12674 -0.054235499 189.793
4.2599702 -0.0542497 189.843
4.3927598 -0.0542574 189.87
4.52635 -0.054274298 189.929
4.66046 -0.0542963 190.006
4.79386 -0.0543091 190.05099
5.0622602 -0.054349799 190.19299
5.1949201 -0.0543525 190.203
5.3303199 -0.054382998 190.30901
5.4634399 -0.054389302 190.33099
5.5966802 -0.054396499 190.35699
5.7330799 -0.054433402 190.48599
5.8680701 -0.0544555 190.563
6.0009198 -0.054457299 190.569
6.2693701 -0.054484401 190.664
6.40418 -0.054501999 190.726
6.5383401 -0.0545136 190.76601
6.6742001 -0.0545386 190.854
6.80931 -0.054556601 190.91701
6.94631 -0.054588798 191.02901
7.0816898 -0.054607298 191.09399
7.2181702 -0.054633301 191.185
7.3559499 -0.054668099 191.30701
7.4943099 -0.054706 191.44
7.6329002 -0.054744098 191.573
7.7755599 -0.054809701 191.802
7.9159398 -0.054857198 191.96899
8.0562801 -0.054902799 192.12801
8.1944799 -0.054932699 192.233
8.3309803 -0.054950301 192.295
8.4655199 -0.0549547 192.31
8.6022902 -0.0549732 192.375
8.7360296 -0.054972101 192.371
8.8724098 -0.0549873 192.424
9.0089397 -0.055002999 192.479
9.14361 -0.0550071 192.493
9.27771 -0.0550077 192.495
9.4120703 -0.0550097 192.502
9.5450401 -0.055003699 192.48199
9.67908 -0.055004001 192.48199
9.8113003 -0.054993998 192.448
10.0782 -0.054988399 192.42799
10.2075 -0.054963 192.339
10.3382 -0.0549464 192.28101
10.4696 -0.054933298 192.235
10.6015 -0.0549234 192.2
10.7317 -0.054905199 192.13699
10.8627 -0.054890901 192.08701
10.994 -0.054878801 192.04401
11.1262 -0.054871701 192.02
11.2558 -0.054851599 191.94901
11.3881 -0.0548453 191.927
11.5214 -0.054843701 191.922
11.652 -0.054829601 191.87199
11.789 -0.054845799 191.929
11.9258 -0.054860398 191.98
12.0696 -0.054906402 192.14101
12.6464 -0.056283001 196.95799
12.8248 -0.056464799 197.59399
12.9746 -0.0565181 197.78101
13.1281 -0.056586199 198.019
13.28 -0.056646299 198.229
13.4288 -0.0566919 198.38901
13.574 -0.0567214 198.492
13.7198 -0.056753099 198.603
13.8672 -0.0567904 198.73399
14.0138 -0.056823701 198.85001
14.1583 -0.056848299 198.936
14.3089 -0.056896299 199.104
14.4556 -0.056928299 199.216
14.6076 -0.0569802 199.39799
14.7596 -0.057031199 199.577
14.9117 -0.057081599 199.75301
15.0634 -0.057129301 199.92
15.2201 -0.057195298 200.151
15.3774 -0.0572621 200.384
15.5343 -0.057326399 200.60899
15.6972 -0.057411298 200.907
15.8718 -0.0575375 201.34801
16.0474 -0.0576647 201.793
-9.8985996 0.0802662 195.407
-9.75352 0.080191799 195.226
-9.6087503 0.080118001 195.04601
-9.4633303 0.080036499 194.847
-9.3194199 0.079965502 194.674
-9.1738997 0.079878397 194.463
-9.0288601 0.079792999 194.255
-8.8845396 0.079711497 194.056
-8.7417097 0.079640999 193.884
-8.5996799 0.079575703 193.72501
-8.4567804 0.079500102 193.54201
-8.3145504 0.079428598 193.367
-8.1720104 0.079351597 193.17999
-8.0311804 0.0792889 193.02699
-7.8904901 0.079225503 192.873
-7.7491202 0.079153001 192.69701
-7.6096301 0.079097398 192.561
-7.4709401 0.079048298 192.442
-7.3322701 0.078997597 192.31799
-7.1938801 0.0789482 192.198
-7.0560298 0.078902997 192.088
-6.9165602 0.078837402 191.92799
-6.7787099 0.078788199 191.808
-6.6412101 0.078741103 191.694
-6.5041099 0.078696802 191.586
-6.3685899 0.078670397 191.522
-6.23177 0.078626297 191.414
-6.0957098 0.078590199 191.326
-5.95965 0.078552298 191.23399
-5.8235998 0.078512803 191.138
-5.6868501 0.078461997 191.01401
-5.5524902 0.078442402 190.967
-5.4176998 0.078415699 190.90199
-5.28269 0.078384399 190.825
-5.14815 0.078358501 190.76199
-5.0134802 0.078329302 190.69099
-4.8789501 0.078300603 190.621
-4.7447 0.078275099 190.55901
-4.6105599 0.078249998 190.498
-4.4765201 0.078225099 190.438
