# .PCD v0.7 - Point Cloud Data file format
VERSION 0.7
FIELDS x y z
SIZE 4 4 4
TYPE F F F
COUNT 1 1 1
WIDTH 1639
HEIGHT 1
VIEWPOINT 0 0 0 1 0 0 0
POINTS 1639
DATA ascii
14.6361 -0.74579 197.907
14.7903 -0.74661601 198.12601
14.9444 -0.74742901 198.342
15.0963 -0.74811101 198.52299
15.2555 -0.749143 198.797
15.4162 -0.750229 199.08501
15.5803 -0.751459 199.411
15.7492 -0.75289899 199.793
-10.4153 -0.59868503 194.89301
-10.2679 -0.59800202 194.67101
-10.1215 -0.59736001 194.46201
-9.97507 -0.59670001 194.24699
-9.8284702 -0.59601098 194.022
-9.68297 -0.59536898 193.813
-9.5374899 -0.59471101 193.599
-9.3924103 -0.59405899 193.38699
-9.2495899 -0.59353298 193.216
-9.1059103 -0.59293598 193.021
-8.9635897 -0.59241098 192.85001
-8.8223305 -0.59193999 192.69701
-8.6827297 -0.59156901 192.576
-8.54321 -0.59119201 192.45399
-8.4042196 -0.59083903 192.339
-8.2642698 -0.590406 192.198
-8.1252203 -0.59002501 192.07401
-7.98735 -0.58971798 191.974
-7.8496599 -0.589414 191.875
-7.7114701 -0.58906198 191.75999
-7.5743098 -0.58877599 191.66701
-7.43787 -0.588539 191.59
-7.2999001 -0.58816898 191.46899
-7.1637502 -0.58793402 191.39301
-7.0272899 -0.58766502 191.30499
-6.8899202 -0.58730698 191.189
-6.7534599 -0.58701497 191.09399
-6.6170201 -0.58671302 190.996
-6.4811502 -0.58644903 190.91
-6.3468099 -0.586317 190.867
-6.2128601 -0.58621401 190.83299
-6.0788798 -0.58610499 190.798
-5.9439402 -0.58589703 190.73
-5.8080502 -0.58558297 190.62801
-5.6723199 -0.585271 190.526
-5.5371199 -0.58499998 190.438
-5.3996601 -0.58447099 190.26601
-5.2655702 -0.58429003 190.207
-5.1311998 -0.58406597 190.134
-4.9966002 -0.58380502 190.049
-4.86379 -0.58374399 190.02901
-4.7308302 -0.58366197 190.002
-4.5991502 -0.58373702 190.02699
-4.4664698 -0.58368498 190.00999
-4.3338699 -0.58364201 189.996
-4.20083 -0.583534 189.961
-4.0676398 -0.58339798 189.91701
-3.93384 -0.58316201 189.84
-3.8001699 -0.58293098 189.765
-3.6672299 -0.58279699 189.72099
-3.53476 -0.58273202 189.7
-3.40189 -0.58259398 189.655
-3.2690001 -0.58244002 189.605
-3.1365299 -0.58235103 189.576
-3.00334 -0.58211702 189.49899
-2.8710201 -0.58203501 189.47301
-2.73839 -0.58188099 189.423
-2.6061001 -0.58178598 189.392
-2.47367 -0.58164698 189.347
-2.3410599 -0.58144999 189.282
-2.0771101 -0.58133501 189.245
-1.9447 -0.58113599 189.17999
-1.8126301 -0.58101702 189.14101
-1.68042 -0.58082902 189.08
-1.41663 -0.58061099 189.009
-1.2851 -0.58063602 189.017
-1.15369 -0.58072299 189.04601
-1.02174 -0.58052498 188.981
-0.89010501 -0.580477 188.966
-0.75871199 -0.58059603 189.004
-0.62711102 -0.58057302 188.99699
-0.49549299 -0.58051699 188.979
-0.36396301 -0.58056098 188.993
-0.232401 -0.580576 188.998
0.0307371 -0.58050197 188.974
0.162328 -0.58063102 189.01601
0.29396299 -0.580733 189.049
0.42557701 -0.58074301 189.052
0.55706102 -0.58061302 189.00999
0.688667 -0.58063501 189.017
0.82045102 -0.58077598 189.063
0.95181298 -0.58062202 189.013
1.0836101 -0.58073902 189.05099
1.2153 -0.580778 189.064
1.34664 -0.58065599 189.024
1.4782701 -0.58067298 189.02901
1.61032 -0.580836 189.082
1.74209 -0.58088303 189.09801
1.87427 -0.58105099 189.153
2.00647 -0.58120197 189.202
2.13817 -0.5812 189.201
2.27022 -0.58128601 189.229
2.4026301 -0.58144897 189.282
2.5345299 -0.58147901 189.29201
2.66609 -0.581433 189.27699
2.7986701 -0.58160198 189.332
2.9305501 -0.58161801 189.33701
3.0631199 -0.581761 189.384
3.1960399 -0.581958 189.448
3.32813 -0.58199501 189.46001
3.46099 -0.58215702 189.51199
3.5933399 -0.58222598 189.535
3.7258301 -0.58231097 189.563
3.85899 -0.58249098 189.621
3.9914999 -0.58256501 189.645
4.1244898 -0.58270198 189.69
4.2586799 -0.58299398 189.785
4.3916001 -0.58310097 189.82001
4.5246301 -0.58321398 189.85699
4.6588898 -0.58347702 189.942
4.79319 -0.58372903 190.024
5.0633502 -0.58437401 190.23399
5.1974001 -0.58455598 190.293
5.3332801 -0.58493 190.41499
5.46737 -0.58509398 190.46899
5.6030598 -0.58541697 190.57401
5.7400899 -0.58586198 190.71899
5.8736401 -0.58594 190.744
6.00425 -0.58572799 190.675
6.2674398 -0.58551401 190.605
6.3991599 -0.58542502 190.576
6.5314999 -0.58539599 190.567
6.66396 -0.58537799 190.561
6.7962699 -0.58534801 190.55099
6.9300399 -0.58544201 190.582
7.0636501 -0.58552003 190.60699
7.1985302 -0.58569801 190.66499
7.3308902 -0.58566803 190.655
7.4618301 -0.58552802 190.61
7.59408 -0.58549398 190.599
7.7259202 -0.58543003 190.578
7.8551002 -0.58516997 190.493
7.9821901 -0.58476502 190.36099
8.1093998 -0.58438301 190.237
8.2336597 -0.583803 190.048
8.3568096 -0.58316398 189.84
8.4825096 -0.58271998 189.696
8.6114397 -0.58250898 189.627
8.74156 -0.58238298 189.586
8.8725796 -0.58231997 189.56599
9.0035801 -0.58225799 189.545
9.1378803 -0.582407 189.59399
9.2734003 -0.58262902 189.666
9.4150696 -0.58322603 189.86099
9.5671196 -0.58443999 190.256
10.028 -0.59609097 194.048
10.1739 -0.59672499 194.255
10.315 -0.59706599 194.366
10.4589 -0.59755701 194.526
10.6035 -0.59807098 194.69299
10.7449 -0.59839898 194.8
10.8858 -0.59869099 194.895
11.0293 -0.59911299 195.032
11.1708 -0.59942502 195.134
11.313 -0.59975803 195.242
11.4557 -0.60011297 195.358
11.5983 -0.600456 195.46899
11.7412 -0.60080802 195.584
11.884 -0.601143 195.69299
12.0264 -0.60145003 195.793
12.1669 -0.60165697 195.86099
12.3055 -0.601767 195.896
12.4455 -0.601942 195.953
12.5915 -0.60240299 196.103
12.7351 -0.60273701 196.21201
12.8754 -0.60290903 196.26801
13.0192 -0.60324401 196.377
13.1595 -0.60340601 196.42999
13.3041 -0.60376501 196.547
13.4516 -0.60424203 196.702
13.5975 -0.60464197 196.832
13.7395 -0.60486299 196.90401
13.8912 -0.605497 197.11
14.0377 -0.60589802 197.241
14.1809 -0.60615098 197.323
14.3309 -0.60668498 197.49699
14.4816 -0.60724002 197.67799
14.6388 -0.60805202 197.942
14.7917 -0.60867298 198.144
14.9454 -0.60931599 198.354
15.0984 -0.60992199 198.55099
15.2555 -0.61067402 198.79601
15.4141 -0.611476 199.05701
15.5793 -0.61252499 199.39799
15.7474 -0.61366701 199.77
-9.9757996 -0.461436 194.261
-9.8290005 -0.46089399 194.033
-9.6830902 -0.460379 193.81599
-9.5375299 -0.45986599 193.60001
-9.3928804 -0.45938301 193.397
-9.2501097 -0.45897901 193.22701
-9.1057196 -0.458482 193.01801
-8.9635897 -0.458085 192.85001
-8.8225002 -0.45773101 192.701
-8.6826096 -0.45742801 192.57401
-8.5424204 -0.4571 192.436
-8.4035797 -0.456835 192.32401
-8.2640305 -0.45652199 192.192
-8.1252298 -0.45624101 192.07401
-7.9869699 -0.455982 191.965
-7.8490801 -0.455735 191.86099
-7.711 -0.455468 191.74899
-7.5742998 -0.455275 191.66701
-7.43786 -0.45508999 191.59
-7.2999802 -0.45480999 191.472
-7.1641502 -0.454649 191.40401
-7.02808 -0.45446599 191.327
-6.8902502 -0.45416 191.198
-6.7531199 -0.45389 191.084
-6.6165099 -0.45364401 190.981
-6.4807301 -0.453446 190.897
-6.3471098 -0.453394 190.875
-6.21345 -0.45333701 190.851
-6.0789499 -0.453215 190.8
-5.9445 -0.453091 190.748
-5.8099699 -0.45295501 190.69099
-5.67451 -0.45274001 190.60001
-5.5397201 -0.45256701 190.52699
-5.4033899 -0.45225799 190.397
-5.26789 -0.452005 190.291
-5.1342402 -0.45190099 190.24699
-4.9991698 -0.451664 190.147
-4.8657598 -0.45156699 190.106
-4.7326102 -0.45149001 190.07401
-4.6004 -0.45150101 190.07899
-4.4677 -0.45146301 190.063
-4.3351002 -0.451433 190.05
-4.2018199 -0.45132801 190.006
-4.0686498 -0.45122799 189.964
-3.9345801 -0.45101899 189.87601
-3.8008399 -0.45083401 189.798
-3.66763 -0.450701 189.742
-3.5350699 -0.45064101 189.716
-3.40224 -0.45054099 189.674
-3.26915 -0.45039701 189.614
-3.1366 -0.45031801 189.58
-3.0034101 -0.45013499 189.504
-2.8710899 -0.45007399 189.478
-2.7384801 -0.44995701 189.429
-2.60642 -0.44992399 189.41499
-2.4741099 -0.44984201 189.38
-2.3415999 -0.44971499 189.326
-2.2093699 -0.44962701 189.289
-2.0775399 -0.449613 189.284
-1.94531 -0.44950899 189.24001
-1.81318 -0.449411 189.19901
-1.68107 -0.44930401 189.15401
-1.549 -0.449191 189.106
-1.28526 -0.44903401 189.03999
-1.15374 -0.449067 189.054
-1.0218101 -0.44892699 188.995
-0.89018399 -0.44889799 188.98199
-0.75879502 -0.44899899 189.02499
-0.62720698 -0.449 189.026
-0.49559301 -0.44897899 189.017
-0.364014 -0.44898501 189.019
-0.23242 -0.44896999 189.013
-0.100818 -0.44887999 188.97501
0.0307418 -0.448946 189.00301
0.162352 -0.44904301 189.04401
0.29401001 -0.44912699 189.07899
0.42564499 -0.44913599 189.08299
0.55716097 -0.44904301 189.04401
0.68878597 -0.449058 189.05
0.82058197 -0.44916099 189.093
0.95194399 -0.449031 189.039
1.08365 -0.449074 189.05701
1.2154599 -0.449148 189.088
1.34677 -0.44904101 189.043
1.4785 -0.44907999 189.05901
1.61062 -0.44922099 189.118
1.74231 -0.449229 189.12199
1.87464 -0.44938901 189.19
2.0067401 -0.44948 189.228
2.1384201 -0.449469 189.22301
2.2706201 -0.449563 189.26199
2.4029701 -0.44967401 189.30901
2.5348301 -0.44968501 189.314
2.66641 -0.44964999 189.299
2.7991099 -0.44979799 189.362
2.93102 -0.44981101 189.367
3.0636899 -0.44993401 189.41901
3.1965899 -0.45008099 189.481
3.3289199 -0.450138 189.505
3.4616301 -0.45023999 189.548
3.5936 -0.45024201 189.549
3.72592 -0.450286 189.567
3.85956 -0.45048201 189.649
3.99266 -0.45060199 189.7
4.1250601 -0.45063999 189.716
4.2590199 -0.45084 189.8
4.3920999 -0.45093799 189.841
4.5246701 -0.45097801 189.858
4.6588402 -0.45117301 189.94
4.7931099 -0.45136401 190.021
5.0637398 -0.45190501 190.24899
5.19835 -0.45209399 190.328
5.33427 -0.452384 190.45
5.46808 -0.45248601 190.493
5.6055298 -0.45287701 190.658
5.7417302 -0.45315099 190.77299
5.8735099 -0.45307201 190.74001
6.0052199 -0.45299101 190.70599
6.1382198 -0.45300901 190.713
6.4019299 -0.45288 190.659
6.5320601 -0.45269999 190.58299
6.6647801 -0.452703 190.58501
6.7957602 -0.45258999 190.537
6.9298501 -0.45268399 190.577
7.0629001 -0.45270899 190.58701
7.1965299 -0.452768 190.612
7.3288898 -0.452748 190.603
7.4612098 -0.45272601 190.59399
7.5943799 -0.452755 190.606
7.7256398 -0.45267099 190.571
7.85427 -0.452438 190.47301
7.9815302 -0.45213601 190.34599
8.1084299 -0.451823 190.214
8.2323999 -0.45135999 190.019
8.3580198 -0.45100099 189.868
8.4869003 -0.45082501 189.79401
8.6144695 -0.450587 189.694
8.7429705 -0.45040399 189.617
8.8758001 -0.45044601 189.634
9.0074501 -0.45042801 189.627
9.2762098 -0.45065799 189.724
9.4169502 -0.45107299 189.89799
9.5674295 -0.45193699 190.26199
10.0257 -0.46082601 194.004
10.1736 -0.46140799 194.24899
10.3147 -0.46167099 194.36
10.4582 -0.462033 194.51199
10.6038 -0.46247801 194.7
10.7454 -0.46274 194.81
10.8865 -0.462971 194.907
11.0308 -0.46333399 195.06
11.1723 -0.46357101 195.16
11.3143 -0.46382099 195.265
11.4569 -0.46408999 195.379
11.6005 -0.464394 195.506
11.7436 -0.46467099 195.623
11.8852 -0.46488401 195.713
12.0264 -0.465076 195.79401
12.1674 -0.46525401 195.868
12.3064 -0.46535501 195.911
12.4472 -0.46552199 195.981
12.5927 -0.46585399 196.121
12.7365 -0.466122 196.23399
12.8766 -0.46625 196.28799
13.0189 -0.466452 196.373
13.1595 -0.466589 196.431
13.3046 -0.46688101 196.55299
13.4537 -0.46730801 196.733
13.5993 -0.46760401 196.858
13.7417 -0.46778899 196.936
13.8947 -0.46832401 197.161
14.1841 -0.468815 197.367
14.3331 -0.46919701 197.528
14.4837 -0.469621 197.707
14.6407 -0.47024101 197.968
14.7941 -0.47073799 198.177
14.9464 -0.47119001 198.368
15.0999 -0.47167301 198.571
15.2549 -0.47218999 198.789
15.4131 -0.472799 199.045
15.5796 -0.47364801 199.40199
15.7458 -0.474473 199.75
-9.5371103 -0.32500401 193.592
-9.3926296 -0.32466799 193.39101
-9.2495403 -0.32437199 193.215
-9.1058998 -0.324047 193.021
-8.9635601 -0.32375899 192.85001
-8.8233004 -0.32353899 192.71899
-8.6829901 -0.32330999 192.582
-8.54284 -0.32308 192.44501
-8.4029799 -0.322853 192.31
-8.2635899 -0.32263801 192.18201
-8.1248703 -0.322442 192.065
-7.9865899 -0.322258 191.95599
-7.8489799 -0.32209399 191.858
-7.7104902 -0.32188901 191.73599
-7.57374 -0.32174999 191.653
-7.4375401 -0.32162899 191.58099
-7.3006101 -0.32147199 191.48801
-7.1640801 -0.32132801 191.40199
-7.0279298 -0.32119501 191.323
-6.8899899 -0.32097399 191.19099
-6.7529302 -0.320786 191.07899
-6.6160698 -0.3206 190.968
-6.4808698 -0.32048801 190.901
-6.3475699 -0.320467 190.88901
-6.2137299 -0.32041901 190.86
-6.0790901 -0.32032499 190.804
-5.9450598 -0.32025999 190.76601
-5.81112 -0.320198 190.729
-5.6758399 -0.320057 190.645
-5.5413399 -0.31995401 190.58299
-5.4067702 -0.319841 190.51601
-5.2714701 -0.31967899 190.42
-5.1370802 -0.31956601 190.35201
-5.0019898 -0.319401 190.254
-4.8682699 -0.31931701 190.20399
-4.7342501 -0.31920901 190.14
-4.6019201 -0.31921199 190.14101
-4.4692302 -0.319188 190.127
-4.3360701 -0.31912899 190.092
-4.2025299 -0.319038 190.03799
-4.0692801 -0.31896299 189.993
-3.93525 -0.31882 189.908
-3.8016701 -0.31870499 189.839
-3.6684999 -0.31861699 189.787
-3.53564 -0.31854999 189.74699
-3.4026301 -0.31846401 189.696
-3.2692699 -0.31833801 189.621
-3.1364601 -0.31825501 189.57201
-3.00297 -0.318095 189.476
-2.87096 -0.31808299 189.46899
-2.7383599 -0.31800199 189.42
-2.6061499 -0.31795999 189.395
-2.4739399 -0.31791201 189.367
-2.3415999 -0.31784299 189.326
-2.2096 -0.31781501 189.30901
-2.0778201 -0.31781501 189.30901
-1.81349 -0.31768399 189.231
-1.68168 -0.31766999 189.22301
-1.54954 -0.31758499 189.173
-1.41741 -0.317487 189.114
-1.15381 -0.317406 189.06599
-1.0219001 -0.31731501 189.011
-0.89024401 -0.31728801 188.995
-0.75887197 -0.31737 189.04401
-0.62723702 -0.31735399 189.035
-0.49568301 -0.31738201 189.05099
-0.36406001 -0.31736901 189.04401
-0.23243199 -0.31733501 189.02299
-0.10083 -0.31729099 188.99699
0.0307501 -0.317386 189.054
0.16237 -0.317406 189.06599
0.29404399 -0.31746599 189.101
0.42568901 -0.317467 189.10201
0.55722398 -0.31740499 189.065
0.68890703 -0.317435 189.08299
0.820701 -0.31749901 189.121
0.95206201 -0.31740001 189.062
1.0839 -0.31746399 189.10001
1.21565 -0.31749201 189.117
1.34708 -0.31744099 189.086
1.4787199 -0.31744099 189.08701
1.61101 -0.31757101 189.164
1.74253 -0.317541 189.146
1.87517 -0.31770399 189.243
2.00704 -0.317725 189.256
2.1387501 -0.31771901 189.252
2.27089 -0.317774 189.285
2.4033101 -0.31785899 189.33501
2.5351 -0.31785801 189.33501
2.6672201 -0.317895 189.35699
2.7999499 -0.31799799 189.418
2.9316199 -0.31797701 189.40601
3.0645001 -0.31808299 189.46899
3.1968601 -0.31812999 189.49699
3.32954 -0.31820199 189.53999
3.59392 -0.31824499 189.565
3.72651 -0.31829801 189.597
3.8598199 -0.318407 189.662
3.99331 -0.31852299 189.731
4.12609 -0.31857699 189.763
4.25986 -0.31870201 189.83701
4.3927798 -0.318757 189.87
4.5254202 -0.31878999 189.89
4.65941 -0.31891301 189.963
4.7931499 -0.31901199 190.02299
4.9288001 -0.31922999 190.15199
5.0645399 -0.31944299 190.27901
5.19912 -0.31957299 190.35699
5.3354502 -0.319801 190.493
5.4705801 -0.319949 190.58
5.6073899 -0.32018501 190.72099
5.7417598 -0.320274 190.774
5.8742499 -0.32025701 190.76401
6.0068898 -0.32024801 190.759
6.1409502 -0.32031399 190.798
6.2718101 -0.320214 190.73801
6.40516 -0.32024199 190.755
6.6662402 -0.32002601 190.62601
6.7971101 -0.31994 190.575
6.9308801 -0.31999001 190.605
7.06287 -0.31995901 190.586
7.1965799 -0.32000399 190.61301
7.3285999 -0.31997499 190.59599
7.4594798 -0.31989801 190.55
7.5914402 -0.31986901 190.533
7.7235599 -0.31984699 190.52
7.8519802 -0.31967601 190.418
7.9793701 -0.319469 190.29401
8.2331896 -0.31903699 190.037
8.4886904 -0.31869599 189.834
8.6166801 -0.318542 189.742
8.7454395 -0.31842101 189.67
8.8786201 -0.31846201 189.69501
9.0103397 -0.31845 189.688
9.14359 -0.318492 189.71201
9.27913 -0.318611 189.784
9.41782 -0.31883299 189.916
9.5665998 -0.31938699 190.246
10.0199 -0.325506 193.89101
10.1737 -0.32611099 194.25101
10.3146 -0.32629099 194.358
10.4585 -0.32655799 194.517
10.6036 -0.326857 194.69501
10.7469 -0.327095 194.83701
11.0316 -0.327494 195.07401
11.1731 -0.32765901 195.173
11.3157 -0.32785401 195.289
11.4588 -0.32805899 195.411
11.6023 -0.32826999 195.537
11.7452 -0.32846099 195.651
11.887 -0.328614 195.742
12.027 -0.32871601 195.80299
12.1673 -0.32882401 195.867
12.307 -0.328913 195.92
12.4497 -0.32908201 196.02
12.5941 -0.32928801 196.14301
12.7372 -0.329458 196.244
12.8771 -0.32954201 196.295
13.0192 -0.32968101 196.377
13.1606 -0.329797 196.44701
13.3054 -0.329997 196.56599
13.4541 -0.33028799 196.739
13.599 -0.33048001 196.854
13.7424 -0.33063501 196.946
13.8972 -0.33105499 197.196
14.0437 -0.331274 197.326
14.1875 -0.331424 197.416
14.3355 -0.33166799 197.561
14.486 -0.331965 197.73801
14.6424 -0.33239099 197.992
14.7963 -0.33275199 198.20599
14.9468 -0.333031 198.373
15.1003 -0.333372 198.576
15.2548 -0.333727 198.787
15.4146 -0.33419099 199.064
15.5791 -0.33474699 199.395
15.7466 -0.33535999 199.75999
-9.5363503 -0.190147 193.576
-9.3921204 -0.18995599 193.381
-9.2487402 -0.189776 193.198
-9.1054602 -0.189593 193.01199
-8.9639597 -0.18944199 192.858
-8.82372 -0.18931399 192.728
-8.6832895 -0.189178 192.589
-8.5428104 -0.189036 192.44501
-8.40275 -0.188899 192.30499
-8.2635803 -0.188778 192.18201
-8.1252699 -0.188673 192.075
-7.9867401 -0.188559 191.959
-7.8487401 -0.188454 191.85201
-7.7104902 -0.18833999 191.73599
-7.5739598 -0.188264 191.659
-7.4374599 -0.188186 191.57899
-7.3004498 -0.18809199 191.48399
-7.1634798 -0.187996 191.386
-7.0275998 -0.187925 191.314
-6.8899102 -0.187802 191.189
-6.7528901 -0.187693 191.078
-6.6161098 -0.18758599 190.96899
-6.4812999 -0.18753301 190.914
-6.3480101 -0.187521 190.903
-6.21386 -0.187483 190.864
-6.0795202 -0.187438 190.81799
-5.9453101 -0.18739501 190.774
-5.8111401 -0.187351 190.729
-5.6773601 -0.187318 190.696
-5.5433102 -0.18727399 190.651
-5.4081302 -0.187189 190.564
-5.2750001 -0.187172 190.548
-5.13901 -0.187051 190.424
-4.8706999 -0.186929 190.299
-4.7362399 -0.18685 190.22
-4.6038299 -0.18685099 190.22
-4.4703598 -0.18680701 190.17599
-4.3369999 -0.186765 190.133
-4.20362 -0.18672 190.08701
-4.0701699 -0.18666799 190.034
-3.9363899 -0.186598 189.963
-3.8030801 -0.186546 189.91
-3.6693699 -0.186469 189.832
-3.53637 -0.186425 189.786
-3.4029901 -0.18635599 189.716
-3.2697599 -0.18629 189.649
-3.1363201 -0.186206 189.564
-3.00295 -0.18611801 189.474
-2.8705499 -0.186086 189.442
-2.7379799 -0.186039 189.394
-2.6057 -0.186009 189.36301
-2.4735999 -0.18598799 189.341
-2.3415501 -0.185969 189.32201
-2.2096601 -0.18596099 189.314
-2.0780399 -0.185976 189.33
-1.94593 -0.185947 189.3
-1.81361 -0.185891 189.243
-1.6818 -0.185884 189.23599
-1.5498199 -0.185854 189.20599
-1.41763 -0.185793 189.144
-1.2856801 -0.185753 189.103
-1.02202 -0.18568601 189.034
-0.890378 -0.18567599 189.024
-0.758986 -0.18572401 189.073
-0.62728101 -0.1857 189.048
-0.49572501 -0.185718 189.067
-0.36411801 -0.18572401 189.073
-0.232458 -0.18569601 189.04401
-0.10084 -0.185669 189.017
0.030753501 -0.185726 189.075
0.162377 -0.18572401 189.073
0.29405701 -0.18576001 189.11
0.42572299 -0.18576699 189.117
0.55727297 -0.18573301 189.082
0.68902397 -0.185765 189.11501
0.820813 -0.18579599 189.147
0.95232999 -0.185766 189.11501
1.08416 -0.18579599 189.146
1.21587 -0.185801 189.15199
1.34741 -0.185782 189.132
1.47911 -0.18578701 189.13699
1.61141 -0.18585899 189.211
1.74291 -0.185836 189.187
1.8755701 -0.185931 189.283
2.0072801 -0.18592601 189.278
2.13886 -0.185909 189.26199
2.2709601 -0.185938 189.291
2.4035499 -0.186 189.354
2.5355599 -0.18601499 189.369
2.6681299 -0.186066 189.42101
2.80109 -0.186139 189.495
2.93291 -0.186133 189.489
3.0655999 -0.18618 189.537
3.3296499 -0.186189 189.54601
3.4625101 -0.18623701 189.59599
3.5947001 -0.186248 189.60699
3.72718 -0.18627299 189.631
3.8603599 -0.18632901 189.688
3.99333 -0.186372 189.73199
4.1268001 -0.186434 189.79601
4.2606001 -0.186507 189.87
4.3933101 -0.18652999 189.89301
4.5260201 -0.186551 189.91499
4.66081 -0.186655 190.021
4.7943802 -0.18670499 190.07201
4.9296398 -0.18681601 190.185
5.0654101 -0.186941 190.312
5.2001801 -0.187023 190.395
5.3366399 -0.18716 190.535
5.4722099 -0.18726 190.63699
5.6078 -0.187356 190.735
5.7414498 -0.18738499 190.76401
5.8741398 -0.187381 190.75999
6.0077701 -0.187407 190.787
6.1424098 -0.187463 190.843
6.2743602 -0.187436 190.81599
6.4072199 -0.187437 190.817
6.5376801 -0.187369 190.74699
6.6697001 -0.18734699 190.72501
6.80092 -0.18730401 190.68201
6.9328399 -0.187282 190.659
7.0633602 -0.187223 190.599
7.1956801 -0.187214 190.59
7.3262401 -0.18716 190.535
7.4573202 -0.187121 190.495
7.7204399 -0.187069 190.44299
7.8492198 -0.186979 190.351
7.9765801 -0.186858 190.228
8.1054802 -0.186777 190.145
8.23351 -0.18667901 190.045
8.3612404 -0.18657701 189.94099
8.4895 -0.18649 189.85201
8.6191101 -0.186434 189.79601
8.7491999 -0.186391 189.752
8.8809404 -0.18638299 189.744
9.0115099 -0.186352 189.71201
9.1456203 -0.18639299 189.755
9.2808399 -0.18645599 189.81799
9.4182301 -0.18656 189.924
9.5633001 -0.186811 190.17999
9.9996595 -0.190073 193.5
10.1731 -0.190798 194.239
10.3154 -0.19092999 194.373
10.4594 -0.191089 194.534
10.6039 -0.19125301 194.702
10.7481 -0.191407 194.85899
10.8895 -0.191507 194.961
11.0323 -0.19163001 195.086
11.1752 -0.191753 195.211
11.3175 -0.19186001 195.32001
11.4592 -0.191958 195.41901
11.6018 -0.192065 195.52901
11.7459 -0.192196 195.662
11.8869 -0.19227301 195.74001
12.0278 -0.19234701 195.81599
12.1676 -0.192403 195.87199
12.3082 -0.192468 195.939
12.4521 -0.192586 196.058
12.5962 -0.192702 196.177
12.7386 -0.192789 196.26601
12.8787 -0.19284201 196.319
13.0206 -0.192919 196.39799
13.1627 -0.19299699 196.47701
13.3076 -0.19311599 196.599
13.4549 -0.193266 196.75101
13.6007 -0.193391 196.87801
13.7446 -0.193488 196.97701
13.8984 -0.19372 197.213
14.0457 -0.193858 197.354
14.1899 -0.193951 197.448
14.3366 -0.194076 197.576
14.487 -0.194249 197.752
14.6441 -0.194507 198.01401
14.7972 -0.194708 198.21899
15.1016 -0.19507501 198.593
15.2565 -0.195288 198.81
15.4188 -0.195591 199.118
15.5807 -0.195884 199.416
15.7504 -0.19626901 199.808
-9.5364103 -0.055316899 193.577
-9.3923998 -0.055262402 193.38699
-9.2492199 -0.055211399 193.20799
-9.1056995 -0.0551567 193.017
-8.9641399 -0.0551126 192.862
-8.82341 -0.0550722 192.72099
-8.6830502 -0.055032901 192.584
-8.5426502 -0.054992098 192.44099
-8.4028597 -0.054954 192.308
-8.2633896 -0.0549169 192.17799
-8.12568 -0.054890301 192.08501
-7.98773 -0.0548613 191.983
-7.8494401 -0.054828901 191.87
-7.7112799 -0.0547962 191.755
-7.5746398 -0.054773498 191.67599
-7.4375 -0.054746199 191.58
-7.3004398 -0.054718498 191.483
-7.1633101 -0.054689299 191.381
-7.0276399 -0.054670401 191.315
-6.8902502 -0.054637 191.198
-6.7530899 -0.054604199 191.08299
-6.6159601 -0.054570299 190.965
-6.4814401 -0.054556999 190.918
-6.3477201 -0.0545501 190.894
-6.2139702 -0.054542501 190.868
-6.0792899 -0.054526299 190.811
-5.9451599 -0.054514401 190.769
-5.81106 -0.054502301 190.72701
-5.67869 -0.054506201 190.74001
-5.5447102 -0.0544944 190.69901
-5.4095898 -0.054470599 190.616
-5.2757101 -0.054458398 190.573
-5.1412001 -0.0544388 190.505
-5.0064902 -0.054416198 190.425
-4.87291 -0.054404799 190.38499
-4.7389698 -0.054388698 190.32899
-4.6054702 -0.0543769 190.28799
-4.4717698 -0.054361999 190.23599
-4.33851 -0.054351602 190.19901
-4.2053499 -0.054341901 190.16499
-4.0714798 -0.054322001 190.09599
-3.93717 -0.054294702 190
-3.80388 -0.054280199 189.95
-3.67015 -0.054258101 189.87199
-3.53741 -0.054249499 189.842
-3.40347 -0.054221101 189.743
-3.27022 -0.054201901 189.67599
-3.1365099 -0.054173101 189.575
-3.00298 -0.054145001 189.476
-2.7376299 -0.054114498 189.37
-2.6054399 -0.0541071 189.34399
-2.47332 -0.054100402 189.32001
-2.3412499 -0.054093901 189.298
-2.20948 -0.054094099 189.298
-2.07794 -0.054100599 189.321
-1.94581 -0.0540912 189.28799
-1.81347 -0.054074202 189.229
-1.68169 -0.0540727 189.22301
-1.5498 -0.054067001 189.203
-1.4177099 -0.054052699 189.153
-1.28589 -0.054047 189.133
-1.15412 -0.054042 189.116
-1.02221 -0.054028299 189.06799
-0.89057899 -0.0540278 189.06599
-0.75915498 -0.054041699 189.11501
-0.62733698 -0.054027401 189.065
-0.495754 -0.054031201 189.078
-0.364133 -0.054032099 189.08099
-0.232473 -0.054025002 189.056
-0.100847 -0.054017302 189.02901
0.030755 -0.054032799 189.084
0.162389 -0.0540337 189.08701
0.29407799 -0.054044001 189.123
0.42576101 -0.054047201 189.134
0.55732602 -0.0540374 189.10001
0.68907303 -0.054045599 189.129
0.82088602 -0.054055501 189.16299
0.95254201 -0.054053798 189.157
1.08437 -0.054061301 189.18401
1.21605 -0.054060001 189.179
1.34758 -0.0540535 189.15601
1.47937 -0.0540573 189.17
1.74332 -0.054074898 189.231
1.87586 -0.054098401 189.313
2.0076399 -0.054097999 189.312
2.1391101 -0.0540899 189.284
2.27121 -0.054097801 189.311
2.4038999 -0.054118101 189.382
2.5360401 -0.054124501 189.405
2.6686599 -0.054139901 189.459
2.80182 -0.0541646 189.545
2.9338701 -0.054166298 189.55099
3.0666599 -0.054181099 189.603
3.1982601 -0.054174401 189.57899
3.32988 -0.054168601 189.55901
3.46278 -0.054183301 189.61099
3.5953 -0.054191101 189.638
3.7277701 -0.054197799 189.661
3.86078 -0.054211602 189.709
3.99368 -0.0542228 189.74899
4.1276598 -0.054247599 189.83501
4.2615099 -0.054269299 189.911
4.3942199 -0.054275502 189.933
4.5273499 -0.054286301 189.97099
4.6616998 -0.054310799 190.05701
4.79632 -0.054336999 190.14799
4.9320998 -0.054374602 190.28
5.06703 -0.054400999 190.37199
5.2023702 -0.0544305 190.476
5.3385901 -0.054467399 190.605
5.4742498 -0.054496899 190.70799
5.60884 -0.054514799 190.77
5.7408199 -0.054506902 190.743
5.8733301 -0.054504301 190.73399
6.0071602 -0.054513801 190.767
6.1426902 -0.054538 190.85201
6.2759299 -0.054541301 190.86301
6.4091802 -0.054544602 190.875
6.5405202 -0.054531801 190.83
6.6716199 -0.0545175 190.78
6.8049102 -0.0545214 190.79401
7.0657401 -0.0544842 190.66299
7.1975398 -0.0544772 190.63901
7.3306599 -0.054480299 190.64999
7.4605799 -0.054459799 190.578
7.7190299 -0.054411199 190.408
7.84759 -0.054383501 190.311
7.9759102 -0.0543551 190.21201
8.1048002 -0.0543315 190.129
8.2326498 -0.054301798 190.02499
8.3613195 -0.054278299 189.94299
8.4906397 -0.054259699 189.87801
8.6216898 -0.054252502 189.853
8.7522802 -0.054242801 189.819
8.88377 -0.0542388 189.80499
9.0144396 -0.054230001 189.774
9.1482096 -0.054239899 189.808
9.2831097 -0.054256 189.86501
9.4193401 -0.054279398 189.94701
9.5615597 -0.054336201 190.145
9.7305098 -0.0545412 190.86301
10.1711 -0.055494901 194.2
10.3157 -0.055545799 194.37801
10.4611 -0.055599298 194.56599
10.6053 -0.055645298 194.72701
10.7484 -0.055684201 194.86301
10.8909 -0.055719599 194.987
11.0328 -0.055750601 195.095
11.1757 -0.0557862 195.22
11.3185 -0.055819798 195.33701
11.4598 -0.055845998 195.429
11.6017 -0.055874199 195.528
11.7463 -0.055914599 195.66901
11.8878 -0.055939399 195.756
12.0283 -0.055959102 195.825
12.1681 -0.0559748 195.88
12.31 -0.056000099 195.968
12.4548 -0.056037899 196.101
12.5978 -0.0560669 196.202
12.7402 -0.056092501 196.291
12.88 -0.056106199 196.34
13.0222 -0.056129701 196.422
13.1639 -0.056150801 196.496
13.3116 -0.056196999 196.657
13.4572 -0.056233499 196.785
13.6036 -0.056272399 196.92101
13.7472 -0.056299102 197.01401
13.8978 -0.056353401 197.20399
14.0468 -0.056400299 197.369
14.1917 -0.056430399 197.474
14.3376 -0.0564637 197.59
14.4869 -0.0565092 197.75
14.6426 -0.056579102 197.995
14.7961 -0.0566389 198.20399
14.9481 -0.056692399 198.39101
15.1026 -0.0567539 198.606
15.2591 -0.056821901 198.84399
15.4211 -0.0569086 199.147
15.5831 -0.0569942 199.44701
15.7535 -0.057108399 199.847
15.9338 -0.057256401 200.364
-9.5365601 0.079516001 193.58
-9.3927698 0.0794397 193.394
-9.25035 0.079372898 193.23199
-9.1065998 0.079292499 193.036
-8.9646101 0.079225197 192.87199
-8.8240499 0.079168797 192.735
-8.6838398 0.079113796 192.601
-8.5431299 0.079052404 192.452
-8.40376 0.079001702 192.328
-8.26404 0.078946002 192.19299
-8.1266203 0.078910798 192.10699
-7.9888902 0.078871399 192.011
-7.85109 0.078829899 191.91
-7.71243 0.0787782 191.784
-7.5748601 0.078736 191.681
-7.43747 0.078694202 191.58
-7.3000798 0.078650899 191.474
-7.16359 0.0786158 191.38901
-7.0279498 0.078588903 191.323
-6.8906398 0.078542002 191.209
-6.7533002 0.078492798 191.089
-6.6157799 0.078439496 190.96001
-6.4815102 0.0784235 190.92
-6.3477201 0.078412503 190.894
-6.2136002 0.078397103 190.856
-6.0782599 0.078365102 190.778
-5.9447498 0.078355901 190.756
-5.8108702 0.078341298 190.72
-5.6788201 0.078351103 190.744
-5.5446801 0.078332096 190.698
-5.4110899 0.078319997 190.668
-5.2766199 0.078294203 190.606
-5.1435099 0.078287803 190.59
-5.0085402 0.078252099 190.50301
-4.8751798 0.078240201 190.474
-4.7407699 0.078210399 190.40199
-4.6069598 0.078188904 190.349
-4.4733901 0.078170396 190.30499
-4.3402801 0.078159101 190.27699
-4.2066002 0.078136504 190.222
-4.0722299 0.078099102 190.131
-3.93852 0.078072302 190.06599
-3.8050399 0.078048497 190.008
-3.5385301 0.078005202 189.90199
-3.4040201 0.0779524 189.774
-3.27107 0.077932298 189.72501
-3.1371901 0.077887699 189.616
-3.00385 0.0778528 189.53101
-2.73791 0.077794597 189.39
-2.6054499 0.077776201 189.345
-2.4730101 0.077756301 189.29601
-2.34093 0.077746302 189.272
-2.20924 0.077748902 189.278
-2.0778401 0.077762596 189.312
-1.94561 0.077744901 189.269
-1.81339 0.077725098 189.22
-1.68176 0.077729903 189.23199
-1.5498199 0.077719197 189.20599
-1.41773 0.077699102 189.157
-1.2860399 0.077698097 189.155
-1.1542701 0.077692598 189.14101
-1.02235 0.077673502 189.095
-0.89072698 0.077674702 189.09801
-0.62744403 0.077674501 189.097
-0.49579599 0.077673197 189.09399
-0.364151 0.0776719 189.091
-0.2325 0.077666901 189.07899
-0.10086 0.077656701 189.054
0.030757301 0.077674903 189.09801
0.162389 0.077670701 189.088
0.294092 0.077688999 189.132
0.42579901 0.077696599 189.151
0.55736798 0.0776814 189.114
0.68912899 0.077693798 189.144
0.820916 0.077704497 189.17
0.952627 0.077706203 189.174
1.0845 0.077719003 189.205
1.21617 0.077715799 189.198
1.34778 0.077710301 189.18401
1.4795901 0.077716 189.198
1.61202 0.077750698 189.283
1.74359 0.077741899 189.261
1.87616 0.077775799 189.34399
2.0078499 0.077771001 189.332
2.1394501 0.077763498 189.314
2.2715299 0.0777734 189.338
2.40417 0.077800497 189.40401
2.53632 0.077809401 189.425
2.6689899 0.0778329 189.483
2.80214 0.077867404 189.567
2.9345801 0.077879898 189.597
3.06756 0.0779052 189.659
3.1991501 0.0778943 189.632
3.3304901 0.077878498 189.59399
3.4632399 0.077895798 189.636
3.5957501 0.077906497 189.662
3.72826 0.077916399 189.686
3.8615 0.077940501 189.745
3.99473 0.077962697 189.799
4.12888 0.078000903 189.892
4.2624402 0.0780259 189.953
4.3955102 0.078040697 189.989
4.5289698 0.078061298 190.039
4.6628299 0.078087598 190.103
4.7987399 0.078145698 190.244
4.9342499 0.078194298 190.36301
5.0689301 0.078227602 190.444
5.20467 0.078275204 190.55901
5.3404999 0.078321703 190.673
5.4745798 0.078340903 190.72
5.60884 0.078361802 190.77
5.7403302 0.078343898 190.72701
5.87289 0.078340903 190.72
6.0078101 0.078368999 190.78799
6.1438999 0.078410797 190.89
6.2779498 0.078425303 190.925
6.41185 0.078437299 190.95399
6.5430498 0.078416601 190.90401
6.6759 0.078415997 190.90199
6.8084898 0.078412503 190.894
6.94133 0.078411996 190.89301
7.0725799 0.078393698 190.84801
7.20434 0.078381799 190.819
7.3346 0.078354299 190.752
7.4651198 0.078330398 190.694
7.59407 0.0782912 190.599
7.7212801 0.078235701 190.463
7.8488598 0.078185797 190.342
7.9772902 0.078145899 190.245
8.1058302 0.078108303 190.153
8.2342997 0.078071304 190.063
8.3631401 0.078038901 189.98399
8.6227999 0.077995002 189.877
8.7533998 0.077980898 189.843
8.8867197 0.077991001 189.868
9.0179596 0.077982903 189.84801
9.1504402 0.0779856 189.855
9.2836599 0.077994503 189.87601
9.4194603 0.078024499 189.94901
9.5602999 0.078094698 190.12
9.7351799 0.078437403 190.95399
10.169 0.0797543 194.16
10.3154 0.079842001 194.37399
10.4615 0.0799243 194.57401
10.606 0.079992399 194.74001
10.7474 0.0800355 194.845
10.8919 0.080100603 195.00301
11.0328 0.080138497 195.09599
11.1762 0.080192499 195.22701
11.3195 0.0802451 195.355
11.4607 0.0802816 195.444
11.6024 0.080320403 195.539
11.7471 0.0803793 195.68201
11.8883 0.0804132 195.76401
12.0285 0.080439001 195.827
12.1693 0.080468401 195.899
12.312 0.080509998 196
12.4562 0.080560297 196.123
12.5988 0.080599204 196.217
12.7407 0.0806325 196.298
12.8805 0.080652498 196.347
13.0238 0.080692999 196.446
13.1656 0.080724098 196.521
13.3132 0.080789797 196.681
13.4587 0.0808414 196.80701
13.6051 0.0808971 196.94299
13.75 0.080943003 197.054
13.8972 0.081001297 197.196
14.0482 0.081080303 197.38901
14.1931 0.0811233 197.493
14.3398 0.081175797 197.621
14.4877 0.081233501 197.761
14.6418 0.081324697 197.98399
14.7969 0.081419803 198.215
14.9512 0.081508599 198.431
15.1061 0.081598997 198.651
15.2616 0.081691399 198.87601
15.4243 0.081820101 199.19
15.5859 0.081940301 199.48199
15.7541 0.082093202 199.854
15.9311 0.0822891 200.33099
-9.2509804 0.21397801 193.245
-9.1069498 0.213755 193.04401
-8.9645395 0.21356399 192.871
-8.8246403 0.21342801 192.748
-8.6841297 0.213273 192.608
-8.5432997 0.21310399 192.45599
-8.4036503 0.21296 192.326
-8.2648401 0.212834 192.211
-8.1269398 0.212727 192.11501
-7.98945 0.21262699 192.024
-7.8520999 0.21252801 191.935
-7.5761199 0.212282 191.713
-7.43817 0.212154 191.59801
-7.3004398 0.212028 191.483
-7.1651502 0.211969 191.42999
-7.0281601 0.21185701 191.32899
-6.8916898 0.21175601 191.23801
-6.7547302 0.21163601 191.13
-6.6170602 0.21148901 190.996
-6.48105 0.21138901 190.907
-6.3474798 0.211367 190.88699
-6.2130399 0.21131399 190.839
-6.0785198 0.211256 190.787
-5.9457698 0.21125899 190.789
-5.8108702 0.211183 190.72099
-5.6790099 0.211217 190.75101
-5.54526 0.21118 190.718
-5.4108801 0.211117 190.661
-5.27739 0.211087 190.634
-5.1444702 0.211078 190.62601
-5.0111198 0.211051 190.601
-4.8768802 0.21098401 190.541
-4.7424698 0.210906 190.47
-4.6092801 0.210878 190.44501
-4.4749699 0.210797 190.37199
-4.3419299 0.21077199 190.349
-4.2083602 0.210719 190.30099
-4.0741801 0.210631 190.222
-3.94045 0.21056101 190.159
-3.8067 0.21048599 190.091
-3.6729 0.210402 190.015
-3.53916 0.21031401 189.936
-3.40518 0.210206 189.838
-3.2721801 0.210152 189.789
-3.1380501 0.210017 189.668
-3.00423 0.209893 189.55499
-2.8710999 0.20980801 189.478
-2.7381599 0.209728 189.40601
-2.6059101 0.20969599 189.37801
-2.4735401 0.20965099 189.33701
-2.3409801 0.209584 189.276
-2.20909 0.209572 189.265
-2.0776501 0.209604 189.29401
-1.94578 0.209594 189.285
-1.8134201 0.209526 189.224
-1.68183 0.209543 189.24001
-1.5499099 0.209519 189.218
-1.41787 0.209472 189.175
-1.2861201 0.209462 189.166
-1.15448 0.209471 189.174
-1.02246 0.209406 189.11501
-0.89092201 0.20943201 189.13901
-0.75941402 0.20947701 189.179
-0.62753397 0.209416 189.12399
-0.49587101 0.20941401 189.123
-0.36419901 0.209406 189.116
-0.232512 0.20937601 189.088
-0.100864 0.20934699 189.062
0.0307588 0.209397 189.10699
0.16240899 0.209401 189.11099
0.29411799 0.209443 189.149
0.42579201 0.209442 189.14799
0.557428 0.209427 189.13499
0.68915999 0.209447 189.15199
0.82101601 0.209492 189.19299
0.95275199 0.209498 189.19901
1.08465 0.209535 189.23199
1.2163399 0.209527 189.22501
1.34779 0.209484 189.186
1.47991 0.20954201 189.239
1.61211 0.209602 189.293
1.7438999 0.20960499 189.295
1.87634 0.20967899 189.362
2.00827 0.20968901 189.371
2.1395199 0.20963199 189.32001
2.27194 0.20969 189.37199
2.40416 0.20972399 189.403
2.53705 0.20980901 189.48
2.6695001 0.20985299 189.519
2.80217 0.209907 189.56799
2.93505 0.20997301 189.62801
3.06758 0.210008 189.66
3.1998701 0.210025 189.675
3.3310201 0.209969 189.62399
3.46386 0.21002001 189.67
3.59654 0.21005701 189.70399
3.7292399 0.21009301 189.73599
3.8626299 0.210164 189.8
3.9950299 0.210178 189.813
4.1294498 0.21029399 189.918
4.2634702 0.210384 189.99899
4.39745 0.210466 190.07201
4.5316601 0.210554 190.15199
4.66608 0.210646 190.235
4.8021598 0.210806 190.38
4.93788 0.210942 190.50301
5.0710001 0.210963 190.522
5.2055898 0.211042 190.593
5.3424301 0.211207 190.742
5.4749999 0.211198 190.73399
5.60817 0.21121299 190.74699
5.7410798 0.211218 190.752
5.8737001 0.211211 190.746
6.0078101 0.21125799 190.78799
6.1437302 0.211364 190.884
6.2796001 0.211465 190.97501
6.4148002 0.211539 191.04201
6.5503702 0.211623 191.117
6.6841302 0.21164501 191.138
6.9463801 0.211527 191.03101
7.0791502 0.211521 191.02499
7.2101798 0.211464 190.974
7.3410401 0.211404 190.92
7.5957699 0.21109501 190.64101
7.8515701 0.21083701 190.408
7.9791298 0.210705 190.28799
8.1068296 0.210581 190.177
8.2361002 0.210501 190.105
8.36868 0.21050701 190.11
8.4963198 0.210391 190.005
8.8879004 0.21026701 189.89301
9.0202198 0.21027 189.896
9.1523199 0.21026701 189.894
9.2850504 0.21028 189.905
9.4218903 0.210383 189.998
9.5630198 0.21057799 190.174
9.7311802 0.211355 190.87601
10.1645 0.21489801 194.075
10.3172 0.21526501 194.407
10.4611 0.215442 194.56599
10.6049 0.21561 194.71899
10.7493 0.21578901 194.88
10.8906 0.2159 194.981
11.0332 0.21603499 195.10201
11.1781 0.21621101 195.26199
11.3198 0.21631999 195.36
11.4613 0.216425 195.455
11.6043 0.216554 195.571
11.7468 0.216671 195.67599
11.8893 0.216786 195.78
12.0287 0.216841 195.83
12.1708 0.21694501 195.924
12.3129 0.21704499 196.01401
12.4569 0.217177 196.134
12.6007 0.21730199 196.24699
12.7418 0.217379 196.31599
12.8828 0.217452 196.382
13.0256 0.217553 196.47301
13.169 0.217663 196.57201
13.3165 0.217838 196.73
13.4593 0.217932 196.815
13.6063 0.21809199 196.96001
13.7508 0.21821 197.06599
13.8981 0.218367 197.209
14.0499 0.218594 197.41299
14.1944 0.218702 197.511
14.3413 0.21884701 197.64101
14.49 0.219014 197.793
14.6445 0.219266 198.02
14.7984 0.219504 198.23599
14.9522 0.219735 198.444
15.1084 0.219998 198.68201
15.2623 0.22022399 198.88499
15.4277 0.22060899 199.233
15.5919 0.220971 199.56
15.7598 0.221377 199.927
15.9318 0.221834 200.339
-9.2516499 0.34860399 193.259
-9.1080103 0.34825599 193.06599
-8.9655304 0.34794199 192.892
-8.8257103 0.34772399 192.771
-8.6848602 0.347458 192.62399
-8.5445299 0.34720501 192.483
-8.4045897 0.34695899 192.347
-8.2660398 0.34676501 192.239
-8.1282701 0.346596 192.146
-7.99124 0.34645399 192.067
-7.8537402 0.34628701 191.97501
-7.7147002 0.34604499 191.84
-7.57726 0.34586799 191.742
-7.4397202 0.34567899 191.63699
-7.3017502 0.34546301 191.51801
-7.1659598 0.34534401 191.452
-7.0290298 0.34516501 191.353
-6.89258 0.34500301 191.263
-6.7555499 0.344805 191.153
-6.61799 0.34457099 191.02299
-6.4816599 0.34439299 190.925
-6.3470201 0.3443 190.873
-6.21313 0.344244 190.842
-6.0780301 0.344116 190.771
-5.9446001 0.34408 190.75101
-5.8105202 0.34400401 190.709
-5.6785302 0.344051 190.735
-5.54493 0.34400001 190.70599
-5.4108801 0.343918 190.661
-5.2780199 0.343909 190.65601
-5.1450701 0.34389499 190.64799
-5.0122499 0.343887 190.644
-4.8791599 0.34386101 190.63
-4.7442298 0.34369999 190.53999
-4.6108999 0.343649 190.51199
-4.4769402 0.34354699 190.45599
-4.3435302 0.34348199 190.41901
-4.2097101 0.34337899 190.362
-4.0759301 0.34327301 190.304
-3.80794 0.34299999 190.153
-3.6743801 0.34288901 190.091
-3.54054 0.34274399 190.00999
-3.40659 0.34257501 189.91701
-3.27301 0.34243199 189.83701
-3.0051899 0.342033 189.616
-2.87168 0.34185299 189.517
-2.6061599 0.341636 189.396
-2.4737799 0.34156299 189.355
-2.34126 0.34145999 189.299
-2.20926 0.34142601 189.28
-2.0778301 0.34148201 189.311
-1.94584 0.341447 189.291
-1.81356 0.341351 189.23801
-1.68206 0.34139901 189.265
-1.5499901 0.34133199 189.228
-1.41795 0.34125799 189.186
-1.28628 0.34126499 189.19
-1.1546 0.34127301 189.19501
-1.02255 0.34115899 189.131
-0.89097601 0.34119299 189.151
-0.75951201 0.34128901 189.20399
-0.62764001 0.341203 189.15601
-0.49595201 0.34119901 189.15401
-0.36423299 0.34116101 189.133
-0.232535 0.34111401 189.10699
-0.100875 0.34106901 189.082
0.0307626 0.34115699 189.13
0.16243701 0.34118 189.14301
0.29414001 0.34121501 189.16299
0.425805 0.341198 189.153
0.55745798 0.34118301 189.145
0.68923301 0.34123299 189.173
0.821096 0.34130299 189.21201
0.95287901 0.341326 189.224
1.08476 0.34137499 189.25101
1.2165 0.341371 189.24899
1.34797 0.34130099 189.21001
1.4801 0.341398 189.26401
1.61244 0.34152099 189.33299
1.744 0.341472 189.30499
1.8765 0.341602 189.377
2.00845 0.34162199 189.388
2.1398399 0.34154901 189.34801
2.2722499 0.34164 189.39799
2.40449 0.34169501 189.429
2.5371301 0.34179801 189.48599
2.66979 0.34189501 189.539
2.8023 0.34196299 189.577
2.9349501 0.342042 189.621
3.06775 0.34213001 189.67
3.2003801 0.34219399 189.705
3.3317001 0.342118 189.66299
3.4642301 0.34216601 189.69
3.59673 0.34220901 189.714
3.7298 0.3423 189.76401
3.8632801 0.34242201 189.832
3.9962101 0.342489 189.869
4.1315699 0.34275299 190.015
4.26578 0.34290901 190.10201
4.3997598 0.343036 190.172
4.5344701 0.34321201 190.27
4.6688499 0.34335399 190.34801
4.8040199 0.34354299 190.453
4.9390898 0.34371701 190.55
5.0718298 0.34372199 190.55299
5.2058501 0.34381199 190.603
5.3425202 0.344069 190.745
5.4753299 0.344071 190.746
5.6080198 0.34406501 190.742
5.7405701 0.34404999 190.735
5.8733001 0.34404701 190.733
6.0083199 0.34417599 190.804
6.14464 0.34437099 190.912
6.2804799 0.34453201 191.002
6.4144201 0.344585 191.03101
6.5511999 0.344785 191.142
6.6903501 0.34509799 191.31599
6.8253899 0.34519199 191.368
6.95367 0.34494701 191.23199
7.34514 0.344576 191.026
7.4755802 0.344459 190.961
7.7281799 0.34386799 190.634
7.98452 0.34347799 190.41701
8.1129904 0.34330499 190.321
8.3696098 0.342962 190.131
8.5023899 0.34297901 190.14
8.6338797 0.342944 190.121
8.7694597 0.34307 190.19099
8.8975801 0.34290501 190.10001
9.15483 0.34262699 189.946
9.2882605 0.34267199 189.97
9.4224396 0.342742 190.009
9.5635204 0.34305799 190.18401
9.7273598 0.34417 190.80099
10.1449 0.34940299 193.702
10.3173 0.35067701 194.408
10.4611 0.35096201 194.56599
10.6047 0.35123199 194.716
10.7482 0.35149199 194.86
10.8933 0.35179499 195.028
11.035 0.35198501 195.134
11.18 0.35227501 195.29401
11.322 0.35246101 195.397
11.4634 0.35262901 195.49001
11.6062 0.352833 195.603
11.7485 0.35301501 195.705
11.8904 0.353185 195.799
12.0301 0.353284 195.854
12.1726 0.353461 195.952
12.3144 0.35361701 196.03799
12.4582 0.35382399 196.153
12.6011 0.35400501 196.25301
12.7439 0.35417399 196.347
12.8836 0.35425901 196.394
13.027 0.35444099 196.495
13.1702 0.35461301 196.59
13.3175 0.35488999 196.744
13.462 0.35508999 196.855
13.6075 0.35530999 196.97701
13.7508 0.35547099 197.06599
13.9 0.355777 197.23599
14.05 0.35609901 197.414
14.1966 0.35632899 197.541
14.3421 0.356529 197.65199
14.4912 0.356812 197.80901
14.6442 0.35718501 198.01601
14.8016 0.35765699 198.278
14.9558 0.35804299 198.492
15.1111 0.35845101 198.718
15.2647 0.35880899 198.91701
15.431 0.359458 199.276
15.5977 0.36010301 199.634
15.7633 0.36071199 199.972
15.9325 0.36139199 200.34801
-9.2529097 0.48327899 193.285
-9.1097002 0.48282099 193.10201
-8.8264599 0.48203501 192.78799
-8.54564 0.48133701 192.508
-8.40555 0.48098901 192.369
-8.2673101 0.48073801 192.269
-8.1296597 0.48051301 192.179
-7.9930401 0.48034301 192.11099
-7.8552198 0.480093 192.011
-7.7165799 0.47978401 191.88699
-7.57828 0.47948599 191.76801
-7.4408398 0.47923201 191.666
-7.3031502 0.47895199 191.55499
-7.1669698 0.478764 191.479
-7.0306101 0.47855499 191.396
-6.8940201 0.47832301 191.30299
-6.7568002 0.478037 191.188
-6.6190801 0.47770301 191.05499
-6.4826598 0.477451 190.95399
-6.34758 0.47728899 190.89
-6.2135801 0.47720399 190.855
-6.0780101 0.47699201 190.771
-5.9440098 0.47689599 190.73199
-5.8099098 0.47678801 190.689
-5.6778798 0.47684801 190.713
-5.5447502 0.47681701 190.701
-5.4106302 0.476697 190.65199
-5.2776599 0.47667399 190.64301
-5.1457601 0.476749 190.674
-5.01296 0.476744 190.67101
-4.8803301 0.47675401 190.67599
-4.7460799 0.47660199 190.61501
-4.6124701 0.47650799 190.577
-4.4788299 0.47640499 190.536
-4.34548 0.476327 190.505
-4.2116799 0.47619399 190.452
-4.07763 0.47602299 190.383
-3.9434299 0.475822 190.30299
-3.8094299 0.47563201 190.22701
-3.67571 0.475465 190.16
-3.54216 0.475308 190.097
-3.27422 0.474834 189.907
-3.1398499 0.47450599 189.776
-3.00598 0.47422999 189.666
-2.87237 0.47397 189.562
-2.7393999 0.473795 189.492
-2.60636 0.473591 189.41
-2.4738801 0.47347301 189.36301
-2.34147 0.473353 189.315
-2.20944 0.47330299 189.295
-2.0778899 0.473355 189.31599
-1.94594 0.47331801 189.30099
-1.8137701 0.47321701 189.261
-1.6823 0.47329599 189.29201
-1.55024 0.47320899 189.257
-1.41822 0.47311899 189.222
-1.2865 0.47312099 189.222
-1.15481 0.47313601 189.228
-1.02276 0.472992 189.17101
-0.891159 0.47303799 189.189
-0.75960797 0.47313401 189.228
-0.62773103 0.47302401 189.18401
-0.496007 0.47300199 189.175
-0.36429 0.47297099 189.16299
-0.232581 0.47292599 189.144
-0.100906 0.47291699 189.14101
0.030770499 0.473012 189.179
0.162475 0.47303399 189.188
0.294204 0.47307599 189.20399
0.42587101 0.473023 189.183
0.55747801 0.47294399 189.15199
0.68930799 0.473048 189.19299
0.82118702 0.473147 189.233
0.95293897 0.47315499 189.23599
1.08481 0.473214 189.25999
1.21656 0.47321501 189.25999
1.34814 0.47315001 189.23399
1.4802099 0.47325999 189.278
1.61254 0.473423 189.343
1.7441601 0.473373 189.323
1.87669 0.47355601 189.396
2.0086601 0.47358599 189.408
2.1402299 0.47352201 189.383
2.2725401 0.47362101 189.422
2.40488 0.47371301 189.459
2.53721 0.47379601 189.492
2.6698999 0.47393301 189.547
2.8022599 0.474002 189.575
2.9347701 0.474089 189.60899
3.0677099 0.474235 189.668
3.2007699 0.47438601 189.728
3.3325701 0.47434601 189.71201
3.46488 0.47437999 189.726
3.5975699 0.47446001 189.758
3.7302001 0.474527 189.785
3.8636301 0.47468799 189.849
3.99701 0.474832 189.907
4.1332102 0.475292 190.091
4.26794 0.47556001 190.198
4.4029102 0.47583699 190.308
4.5369301 0.47599801 190.373
4.6706901 0.47612399 190.423
4.80549 0.476345 190.51199
4.9398899 0.47651699 190.58
5.07234 0.476495 190.57201
5.2057199 0.47656 190.59801
5.3417201 0.47685599 190.716
5.4747901 0.47688299 190.72701
5.60778 0.47690099 190.73399
5.7401099 0.47686401 190.71899
5.8721299 0.476803 190.69501
6.00808 0.47705701 190.797
6.1441698 0.47731 190.89799
6.28058 0.47757801 191.005
6.4148898 0.477678 191.045
6.5496802 0.477808 191.097
6.6929998 0.47854501 191.392
6.8357601 0.47921199 191.658
7.0861702 0.47810301 191.215
7.2197199 0.47813201 191.22701
7.4793401 0.47770801 191.05701
7.6090398 0.477501 190.974
7.8676801 0.477061 190.798
7.9946299 0.476711 190.658
8.1185102 0.476192 190.451
8.24893 0.47606701 190.401
8.3855104 0.47629699 190.492
8.9134903 0.476165 190.44
9.0380001 0.47573999 190.27
9.1649704 0.47545499 190.15601
9.2926502 0.47521499 190.06
9.4248304 0.475209 190.05701
9.5650997 0.47560501 190.216
9.7220001 0.476805 190.696
9.8873997 0.478385 191.328
10.3177 0.48610699 194.416
10.4631 0.48657501 194.603
10.6069 0.486958 194.756
10.7491 0.487257 194.87601
10.892 0.48758101 195.006
11.0354 0.487921 195.142
11.1801 0.48830399 195.295
11.3221 0.48856601 195.39999
11.4633 0.488787 195.48801
11.6061 0.48907101 195.60201
11.7492 0.48935699 195.716
11.8911 0.489593 195.81
12.0307 0.48972699 195.864
12.1735 0.48998401 195.967
12.316 0.490226 196.064
12.4589 0.49048001 196.16499
12.6019 0.490729 196.265
12.7438 0.490933 196.34599
12.8855 0.491124 196.423
13.03 0.49141601 196.539
13.1726 0.491633 196.62601
13.3199 0.492019 196.78
13.4635 0.49226099 196.877
13.6097 0.49259099 197.009
13.7534 0.492825 197.103
13.9012 0.49320099 197.25301
14.052 0.49367499 197.44299
14.1997 0.49403101 197.58501
14.3437 0.49425301 197.674
14.4923 0.49463001 197.825
14.6465 0.49518701 198.047
14.8036 0.495828 198.304
14.9592 0.496411 198.537
15.1139 0.49695399 198.754
15.2682 0.49747401 198.96201
15.4349 0.498384 199.326
15.6017 0.49928001 199.68401
15.766 0.50008202 200.005
15.9371 0.50108498 200.407
-9.2547903 0.61803299 193.32401
-9.1116304 0.61745203 193.14301
-8.9695797 0.61693001 192.979
-8.82792 0.61641902 192.82001
-8.6868095 0.61593097 192.66701
-8.54632 0.61547297 192.524
-8.4068604 0.61507499 192.399
-8.2688904 0.61477602 192.306
-8.1315804 0.61451602 192.224
-7.9949799 0.61430198 192.157
-7.8575702 0.61401701 192.06799
-7.7185702 0.61359698 191.937
-7.5798502 0.61318398 191.808
-7.4421802 0.61284298 191.701
-7.30512 0.61254001 191.606
-7.16854 0.61226797 191.521
-7.0325999 0.61203998 191.45
-6.89536 0.61168897 191.34
-6.75805 0.61131698 191.224
-6.62044 0.61090302 191.09399
-6.4841199 0.61059302 190.99699
