ply
format ascii 1.0
comment PCL generated
element vertex 1702
property float x
property float y
property float z
element camera 0
property float view_px
property float view_py
property float view_pz
property float x_axisx
property float x_axisy
property float x_axisz
property float y_axisx
property float y_axisy
property float y_axisz
property float z_axisx
property float z_axisy
property float z_axisz
property float focal
property float scalex
property float scaley
property float centerx
property float centery
property int viewportx
property int viewporty
property float k1
property float k2
end_header
-0.23235799 -2.5547299 188.963
-0.100816 -2.5548501 188.97099
0.0307431 -2.5553801 189.011
0.16233 -2.55549 189.019
0.29392201 -2.5555401 189.022
0.42551699 -2.5555799 189.026
0.557064 -2.5553801 189.011
0.688604 -2.5552299 189
0.82025498 -2.55548 189.01801
0.95144099 -2.55441 188.939
1.08332 -2.5552199 188.99899
1.21535 -2.55619 189.071
1.34721 -2.5566299 189.104
1.47921 -2.55725 189.149
1.61143 -2.55812 189.213
1.74339 -2.55847 189.239
1.8753099 -2.5587201 189.258
2.0075099 -2.5592899 189.3
2.1392801 -2.5592799 189.299
2.2715199 -2.5597899 189.33701
2.4047201 -2.56128 189.44701
2.53655 -2.5612199 189.44299
2.6691 -2.5618601 189.49001
2.80179 -2.5625801 189.543
2.9340701 -2.56286 189.564
3.0674601 -2.56405 189.65199
3.2014301 -2.5656099 189.767
3.3341899 -2.5661099 189.80499
3.46527 -2.56533 189.74699
3.5968001 -2.56493 189.717
3.72769 -2.5641201 189.657
3.8589201 -2.56359 189.618
3.9902201 -2.5631399 189.584
4.1214499 -2.56267 189.55
4.2523098 -2.56201 189.50101
4.3814101 -2.56036 189.379
4.5103998 -2.5587399 189.25999
4.63766 -2.5562699 189.077
4.7655401 -2.55426 188.92799
4.89533 -2.55336 188.86099
5.02385 -2.5518601 188.75
5.15206 -2.5502801 188.633
5.27915 -2.5482399 188.48199
5.4073501 -2.5468199 188.377
5.5331702 -2.5443699 188.19701
5.66113 -2.543 188.095
5.7920599 -2.543 188.095
5.9244099 -2.5436001 188.13901
6.0587001 -2.5449901 188.242
6.1919799 -2.5459099 188.31
6.329 -2.5483 188.487
6.46662 -2.5508299 188.674
6.6360102 -2.5655301 189.76199
6.8594599 -2.6001599 192.323
6.9984698 -2.6020601 192.464
7.1409302 -2.60516 192.69299
7.2789698 -2.60655 192.79601
7.4158702 -2.6074901 192.86501
7.55408 -2.60886 192.966
7.6900902 -2.6094301 193.008
7.82411 -2.6093099 193
7.96066 -2.6100299 193.05299
8.0980797 -2.6110101 193.125
8.23668 -2.6123199 193.22301
8.3757801 -2.61376 193.32899
8.5114698 -2.6141 193.354
8.6445999 -2.6136501 193.321
8.77882 -2.6135399 193.313
8.9145403 -2.6138799 193.338
9.0508404 -2.6143701 193.37399
9.1864204 -2.61465 193.394
9.3218699 -2.6148801 193.411
9.4551296 -2.61449 193.383
9.5892401 -2.6143501 193.373
9.7247496 -2.6145899 193.39101
9.8601999 -2.61481 193.407
9.99578 -2.6150601 193.425
10.1305 -2.6150899 193.427
10.2654 -2.61514 193.431
10.4014 -2.6154699 193.455
10.5369 -2.61569 193.47099
10.6795 -2.61761 193.614
10.8186 -2.61866 193.69099
10.9551 -2.61906 193.72099
11.0931 -2.6198101 193.77699
11.2349 -2.6214099 193.894
11.3761 -2.6228499 194.00101
11.5183 -2.62449 194.12199
11.6626 -2.6265399 194.274
11.8132 -2.6299701 194.528
11.9605 -2.63258 194.72099
12.1058 -2.6347001 194.877
12.2492 -2.6363599 195
12.395 -2.6385 195.158
12.5389 -2.6401801 195.283
12.6871 -2.64274 195.472
12.8355 -2.6452701 195.66
12.981 -2.6471701 195.8
13.2758 -2.6516099 196.12801
13.4243 -2.65397 196.30299
13.5705 -2.6558499 196.442
13.7161 -2.6575601 196.56799
13.8726 -2.66132 196.847
14.0407 -2.6672299 197.284
14.2083 -2.67292 197.705
14.4552 -2.69327 199.21001
14.711 -2.7149 200.81
-11.3371 -2.4930301 194.41499
-11.0549 -2.4904301 194.21201
-10.9122 -2.4887199 194.07899
-10.7705 -2.48718 193.959
-10.6247 -2.4846799 193.76401
-10.4773 -2.4816999 193.532
-10.3302 -2.47875 193.302
-10.183 -2.4756801 193.062
-9.8883495 -2.4692199 192.558
-9.7422895 -2.4661801 192.321
-9.5945301 -2.46262 192.043
-9.4491901 -2.4595799 191.80701
-9.1619596 -2.45418 191.38499
-9.01931 -2.4516201 191.186
-8.8796396 -2.44981 191.04401
-8.7473001 -2.44999 191.058
-8.6147804 -2.45013 191.069
-8.4849195 -2.45104 191.14101
-8.3525 -2.45123 191.155
-8.2191801 -2.4511499 191.149
-8.0851002 -2.45085 191.125
-7.95085 -2.45048 191.097
-7.8150902 -2.44962 191.03
-7.6800599 -2.4489701 190.979
-7.5447102 -2.44819 190.918
-7.40733 -2.4467101 190.80299
-7.27107 -2.44556 190.713
-7.1356802 -2.4446599 190.64301
-6.99965 -2.4435 190.55299
-6.8627901 -2.4420099 190.436
-6.7265501 -2.44068 190.33299
-6.5892301 -2.43889 190.19299
-6.4531102 -2.43749 190.084
-6.3162498 -2.43574 189.948
-6.18048 -2.43435 189.839
-6.0468798 -2.4337699 189.793
-5.9134002 -2.4332099 189.75
-5.7793498 -2.43238 189.686
-5.6459098 -2.4317901 189.63901
-5.51227 -2.4310701 189.58299
-5.3793302 -2.43064 189.55
-5.24754 -2.4307101 189.556
-5.1150999 -2.43048 189.53799
-4.9828901 -2.4303601 189.528
-4.8506398 -2.4302001 189.515
-4.7165298 -2.42908 189.42799
-4.5833702 -2.4284 189.375
-4.4512701 -2.4282501 189.36301
-4.3189702 -2.4279799 189.343
-4.1859698 -2.42729 189.289
-4.0535798 -2.42693 189.25999
-3.9221499 -2.42713 189.276
-3.7896299 -2.42664 189.23801
-3.6575401 -2.42641 189.22
-3.52548 -2.4261799 189.202
-3.39271 -2.42542 189.14301
-3.2599101 -2.4245901 189.078
-3.12799 -2.42435 189.06
-2.9962599 -2.4242699 189.05299
-2.8649001 -2.42448 189.069
-2.7327499 -2.424 189.032
-2.6004 -2.42331 188.978
-2.4688101 -2.42327 188.97501
-2.33742 -2.42344 188.98801
-2.20542 -2.42296 188.95
-2.0741301 -2.42326 188.974
-1.94291 -2.4236701 189.006
-1.81093 -2.42313 188.964
-1.6792099 -2.4228899 188.94501
-1.5477999 -2.42308 188.96001
-1.4162 -2.4229801 188.952
-1.28449 -2.4226501 188.927
-1.1530499 -2.4228401 188.94099
-1.02133 -2.42238 188.905
-0.889516 -2.42155 188.841
-0.75820798 -2.42204 188.879
-0.62695998 -2.4229701 188.951
-0.49548599 -2.42328 188.976
-0.36393401 -2.42331 188.978
-0.232354 -2.42308 188.96001
-0.100816 -2.4232299 188.972
0.030744599 -2.4238501 189.02
0.16235501 -2.4242001 189.048
0.29397199 -2.4243 189.05499
0.42563301 -2.4245801 189.077
0.557199 -2.42432 189.05701
0.68877202 -2.42418 189.04601
0.820463 -2.4244399 189.06599
0.95166397 -2.4233699 188.983
1.08364 -2.42431 189.056
1.21579 -2.42537 189.13901
1.3476501 -2.42572 189.166
1.47982 -2.4265001 189.22701
1.61202 -2.4272101 189.282
1.74401 -2.42752 189.306
1.87642 -2.4283299 189.37
2.0084701 -2.4285901 189.39
2.14044 -2.42874 189.401
2.4059701 -2.4305899 189.54601
2.53743 -2.43011 189.509
2.6698799 -2.4305899 189.54601
2.8022699 -2.4309599 189.575
2.93488 -2.4315 189.617
3.06879 -2.4330101 189.735
3.2026401 -2.43435 189.839
3.3339 -2.4337001 189.78799
3.4653101 -2.4331999 189.74899
3.59711 -2.4329901 189.733
3.7279899 -2.43221 189.672
3.85937 -2.4317901 189.64
3.9909101 -2.43151 189.617
4.1222901 -2.4311399 189.589
4.2530899 -2.43046 189.536
4.3818102 -2.4286699 189.396
4.5110602 -2.4272699 189.287
4.63837 -2.4249401 189.106
4.7665601 -2.4231901 188.968
4.8962102 -2.42224 188.895
5.02496 -2.4209199 188.79201
5.15276 -2.41922 188.659
5.2800999 -2.4173901 188.51601
5.4085102 -2.4161301 188.418
5.53404 -2.4136701 188.226
5.66222 -2.4124501 188.132
5.7919402 -2.4119301 188.091
5.9243898 -2.41255 188.13901
6.0584998 -2.4138 188.23599
6.1922798 -2.41487 188.32001
6.32898 -2.4170101 188.487
6.4656901 -2.41906 188.647
6.85992 -2.4663701 192.336
6.9999599 -2.4685299 192.505
7.1387601 -2.47019 192.634
7.2778702 -2.47189 192.767
7.4145799 -2.4727299 192.832
7.5517802 -2.4737 192.908
7.6890402 -2.4746499 192.98199
7.8236499 -2.47474 192.989
7.9607201 -2.47559 193.05499
8.0987701 -2.4767001 193.142
8.2372398 -2.47791 193.23599
8.3757801 -2.4791 193.32899
8.5119104 -2.4795499 193.364
8.6451797 -2.4791601 193.334
8.7794504 -2.4790699 193.327
8.9151602 -2.4793899 193.351
9.0516596 -2.4799099 193.392
9.1872597 -2.48017 193.412
9.32267 -2.48037 193.42799
9.4560099 -2.4800301 193.401
9.5903301 -2.47995 193.395
9.7260799 -2.4802301 193.41701
9.8621702 -2.4805901 193.44501
9.9979401 -2.48087 193.467
10.132 -2.48072 193.455
10.2673 -2.48086 193.466
10.4026 -2.4809999 193.47701
10.5381 -2.48122 193.494
10.6779 -2.4823899 193.58501
10.8178 -2.4835601 193.677
10.956 -2.48434 193.737
11.0971 -2.4857299 193.84599
11.2379 -2.48703 193.94701
11.5202 -2.4896801 194.15401
11.6642 -2.49156 194.3
11.8109 -2.4939699 194.489
11.9575 -2.49632 194.67101
12.1043 -2.4986401 194.853
12.2478 -2.5002601 194.979
12.5371 -2.5038199 195.256
12.6854 -2.5062599 195.44701
12.8343 -2.50876 195.642
12.9796 -2.51053 195.78
13.1225 -2.51179 195.87801
13.273 -2.5144701 196.08701
13.4212 -2.51666 196.258
13.5669 -2.5183499 196.39
13.7133 -2.5201199 196.528
13.8695 -2.5236499 196.80299
14.0343 -2.5286601 197.194
14.1928 -2.53245 197.489
14.3946 -2.5438099 198.375
14.6652 -2.5670099 200.185
-11.3409 -2.3584001 194.48
-11.1995 -2.3571301 194.375
-11.0585 -2.3559201 194.276
-10.9156 -2.35428 194.14
-10.7739 -2.3528399 194.021
-10.628 -2.35044 193.82401
-10.4819 -2.34793 193.617
-10.3359 -2.3454101 193.409
-10.1879 -2.34232 193.15401
-10.0392 -2.33902 192.882
-9.8921299 -2.33599 192.632
-9.7460499 -2.3331201 192.395
-9.5983696 -2.3297901 192.12
-9.3090401 -2.3243301 191.67
-9.1647596 -2.3215799 191.444
-9.0204601 -2.3187499 191.21001
-8.8817301 -2.3172801 191.089
-8.7480001 -2.3171 191.07401
-8.6146297 -2.3169999 191.06599
-8.4831305 -2.31742 191.10001
-8.3520002 -2.31794 191.144
-8.2192402 -2.3180301 191.151
-8.0861397 -2.3180201 191.14999
-7.9509802 -2.31741 191.10001
-7.8157802 -2.3167701 191.047
-7.6807699 -2.31616 190.99699
-7.5472398 -2.31599 190.98199
-7.4088802 -2.3143001 190.843
-7.2729602 -2.3133199 190.763
-7.1371298 -2.31234 190.68201
-7.0018601 -2.3115101 190.61301
-6.8649902 -2.3101001 190.49699
-6.5910902 -2.30707 190.24699
-6.45439 -2.3055501 190.121
-6.3175702 -2.30392 189.987
-6.1821699 -2.3027501 189.89101
-6.0481601 -2.3020599 189.834
-5.9141598 -2.3013401 189.774
-5.77987 -2.3004701 189.703
-5.6463799 -2.29989 189.655
-5.5124798 -2.2991099 189.591
-5.3800702 -2.2989299 189.575
-5.2480898 -2.2989199 189.575
-5.1156101 -2.2987001 189.55701
-4.98318 -2.29848 189.539
-4.8509798 -2.2983601 189.52901
-4.7169399 -2.2973399 189.444
-4.5837898 -2.2967 189.392
-4.4519501 -2.29671 189.39301
-4.3192501 -2.2962501 189.355
-4.1861701 -2.2955599 189.298
-4.0545301 -2.29564 189.304
-3.9229 -2.2957301 189.312
-3.78988 -2.2949901 189.25101
-3.65786 -2.2948101 189.23599
-3.52565 -2.2945099 189.211
-3.3929601 -2.2938499 189.157
-3.1282499 -2.29286 189.075
-2.99663 -2.29286 189.076
-2.8652201 -2.29304 189.09
-2.7329099 -2.29248 189.04401
-2.60058 -2.2918301 188.991
-2.46913 -2.29194 188.99899
-2.3377199 -2.2921 189.01199
-1.94314 -2.29229 189.028
-1.8111399 -2.29178 188.98599
-1.67941 -2.2915499 188.967
-1.54791 -2.29162 188.97301
-1.41626 -2.29146 188.96001
-1.28458 -2.2912199 188.94
-1.15316 -2.29144 188.95799
-1.02149 -2.2911601 188.935
-0.88968098 -2.2904401 188.87601
-0.75839901 -2.29105 188.92599
-0.62706399 -2.2917399 188.983
-0.49554399 -2.2919199 188.998
-0.363942 -2.2917299 188.98199
-0.23233999 -2.2913201 188.948
-0.100818 -2.29164 188.97501
0.0307448 -2.2922001 189.021
0.162375 -2.2927999 189.071
0.29401499 -2.2929499 189.082
0.42567801 -2.2931299 189.097
0.557208 -2.29267 189.06
0.68880802 -2.2926199 189.056
0.82051599 -2.2928901 189.078
0.95181298 -2.2921 189.013
1.08411 -2.2936201 189.138
1.21629 -2.29458 189.217
1.3482 -2.2948999 189.243
1.48028 -2.2954199 189.286
1.61247 -2.29601 189.33501
1.74441 -2.2962 189.35001
1.87712 -2.2972801 189.44
2.00946 -2.2978101 189.48399
2.1415 -2.29795 189.495
2.2742701 -2.29881 189.56599
2.40694 -2.29949 189.62199
2.53848 -2.2990601 189.58701
2.67061 -2.29919 189.597
2.80265 -2.2992301 189.601
2.93539 -2.29983 189.64999
3.0700901 -2.3018301 189.815
3.2040601 -2.3031499 189.923
3.33447 -2.3018999 189.821
3.4659901 -2.3014901 189.787
3.5977199 -2.30123 189.76601
3.86011 -2.3001499 189.67599
3.99175 -2.2999101 189.657
4.12289 -2.2994201 189.616
4.2538099 -2.29883 189.56799
4.3825598 -2.2971499 189.429
4.5117202 -2.2957699 189.315
4.6392102 -2.2936399 189.14
4.76757 -2.2920499 189.008
4.8970399 -2.29106 188.927
5.0259299 -2.28987 188.828
5.15377 -2.28826 188.696
5.2810001 -2.2864699 188.548
5.4094701 -2.28529 188.451
5.53544 -2.2831399 188.274
5.6636 -2.28197 188.177
5.79217 -2.2810099 188.09801
5.9250698 -2.28177 188.16
6.0591502 -2.2829299 188.256
6.19276 -2.28387 188.334
6.3290601 -2.2857499 188.489
6.4649701 -2.28741 188.62601
6.8594398 -2.3322301 192.32201
6.9981599 -2.3338499 192.455
7.1356101 -2.33498 192.549
7.2748499 -2.3366599 192.687
7.4141502 -2.33828 192.821
7.5509801 -2.3390801 192.88699
7.6874199 -2.33974 192.94099
7.8223901 -2.3399401 192.95799
7.9600101 -2.34091 193.037
8.0988598 -2.3422 193.144
8.23769 -2.3434401 193.246
8.3754597 -2.3443501 193.321
8.5115299 -2.3447599 193.355
8.6455402 -2.3446 193.342
8.7798901 -2.3445301 193.336
8.9158497 -2.3448901 193.366
9.0533504 -2.3456399 193.42799
9.1880302 -2.34565 193.42799
9.3230801 -2.3457501 193.437
9.4566603 -2.34548 193.414
9.5922899 -2.3457201 193.43401
9.7274303 -2.34584 193.444
9.8643398 -2.34637 193.48801
9.9999199 -2.34658 193.505
10.1339 -2.34642 193.492
10.2684 -2.34637 193.48801
10.404 -2.34656 193.504
10.5398 -2.3468101 193.524
10.6788 -2.3477499 193.60201
10.817 -2.3485 193.66299
10.9557 -2.3493299 193.73199
11.0988 -2.3510699 193.875
11.2421 -2.3528199 194.019
11.3808 -2.35356 194.08099
11.5233 -2.3550799 194.20599
11.6661 -2.3566101 194.332
11.8097 -2.3582799 194.47
11.9558 -2.3603899 194.644
12.1031 -2.36268 194.83299
12.2467 -2.3642299 194.961
12.3915 -2.3659501 195.103
12.5357 -2.3675499 195.23399
12.684 -2.3698499 195.424
12.8324 -2.3721499 195.614
12.9785 -2.37396 195.763
13.1207 -2.37503 195.85201
13.2707 -2.37748 196.05299
13.4196 -2.3796699 196.23399
13.5654 -2.3812799 196.367
13.7128 -2.3831401 196.52
13.8663 -2.3860199 196.757
14.0288 -2.3903699 197.116
14.1867 -2.3938601 197.40401
14.3582 -2.39955 197.873
14.5977 -2.4163899 199.26199
-11.4906 -2.2256999 194.722
-11.3447 -2.22369 194.545
-11.2016 -2.2221701 194.412
-10.9203 -2.22 194.222
-10.632 -2.21627 193.897
-10.4868 -2.2141299 193.709
-10.3398 -2.2115099 193.48
-10.1918 -2.2086401 193.229
-10.044 -2.2057199 192.97301
-9.8971395 -2.20293 192.729
-9.4573498 -2.1942799 191.972
-9.3125296 -2.1916499 191.742
-9.1674805 -2.18889 191.50101
-9.0254202 -2.18677 191.315
-8.8846798 -2.1849101 191.153
-8.7479095 -2.18399 191.07201
-8.6147099 -2.1839399 191.06799
-8.4815502 -2.1839001 191.064
-8.3508396 -2.1845 191.117
-8.2192698 -2.1849 191.151
-8.0863304 -2.1849301 191.155
-7.9503698 -2.18414 191.08501
-7.8158398 -2.1837201 191.048
-7.6813998 -2.18331 191.01199
-7.5482001 -2.1832399 191.007
-7.4105401 -2.18186 190.886
-7.2748399 -2.18102 190.812
-7.1384501 -2.17993 190.717
-6.86724 -2.1781299 190.56
-6.7302899 -2.1767399 190.438
-6.5932202 -2.1752601 190.308
-6.45611 -2.1737001 190.172
-6.3196802 -2.1723101 190.05099
-6.1840601 -2.17115 189.94901
-6.04952 -2.17032 189.87601
-5.9151602 -2.1695199 189.80701
-5.7807498 -2.1686699 189.73199
-5.6468201 -2.1679599 189.67
-5.5131302 -2.16731 189.61301
-5.3807502 -2.16716 189.60001
-5.2482901 -2.16696 189.58299
-5.1158299 -2.16676 189.565
-4.9829602 -2.1663699 189.53
-4.8505702 -2.1661601 189.513
-4.5840902 -2.1649301 189.40401
-4.45225 -2.1649401 189.405
-4.3197098 -2.1645899 189.375
-4.18714 -2.1642101 189.342
-4.0549502 -2.16401 189.32401
-3.92293 -2.1638899 189.313
-3.7903299 -2.16343 189.27299
-3.6581399 -2.1631701 189.25101
-3.5257199 -2.16276 189.215
-3.39311 -2.16219 189.16499
-3.2604301 -2.16153 189.10699
-3.12849 -2.16133 189.09
-2.9967799 -2.1612799 189.08501
-2.86551 -2.1615601 189.10899
-2.7332699 -2.1610799 189.06799
-2.6008999 -2.16046 189.01401
-2.46945 -2.1605799 189.024
-2.3379099 -2.16063 189.028
-2.20591 -2.1602199 188.993
-2.0747199 -2.16061 189.02699
-1.94337 -2.1608801 189.05
-1.81134 -2.1603799 189.007
-1.67962 -2.1601901 188.99001
-1.54817 -2.1603601 189.005
-1.41641 -2.16008 188.981
-1.2847 -2.1598201 188.95799
-1.15334 -2.1601701 188.989
-1.02168 -2.15996 188.97
-0.88989902 -2.15941 188.922
-0.75858802 -2.1600001 188.97301
-0.62712198 -2.16031 189
-0.49558699 -2.16047 189.01401
-0.36397299 -2.16028 188.998
-0.23236801 -2.15997 188.97099
-0.100818 -2.1600299 188.976
0.0307415 -2.16031 189
0.162368 -2.16102 189.063
0.294027 -2.16133 189.09
0.425686 -2.1614599 189.101
0.55719 -2.1609199 189.054
0.68880999 -2.1609499 189.05701
0.820544 -2.1612699 189.084
0.95204002 -2.16096 189.058
1.0846699 -2.1629901 189.235
1.21667 -2.16345 189.276
1.34866 -2.16383 189.308
1.48069 -2.16418 189.339
1.61316 -2.1650701 189.41701
1.74497 -2.165 189.411
1.87762 -2.16591 189.49001
2.01003 -2.16644 189.537
2.1420701 -2.1665399 189.545
2.27473 -2.1672201 189.605
2.40715 -2.1675999 189.638
2.53899 -2.16745 189.625
2.6710999 -2.1675301 189.632
2.8031099 -2.1675301 189.632
2.93595 -2.1681399 189.685
3.0715599 -2.17066 189.90601
3.2047701 -2.17134 189.965
3.3361499 -2.1707699 189.916
3.4669299 -2.1698799 189.838
3.59881 -2.1697199 189.82401
3.72962 -2.1689401 189.755
3.9928601 -2.1684201 189.71001
4.12363 -2.1677401 189.64999
4.2544298 -2.16711 189.59599
4.5116401 -2.1638701 189.312
4.7685399 -2.16084 189.047
4.8976598 -2.15974 188.951
5.1547198 -2.1572299 188.731
5.4102998 -2.1543601 188.48
5.5370402 -2.1526301 188.328
5.6645598 -2.1512599 188.209
5.7934399 -2.15047 188.14
5.92589 -2.151 188.186
6.0592699 -2.15185 188.25999
6.1926999 -2.1526699 188.332
6.3288498 -2.1543901 188.483
6.4670401 -2.1567199 188.686
6.6350498 -2.1687 189.73399
6.8573699 -2.1976099 192.26401
6.9956598 -2.1990099 192.38699
7.1327901 -2.2 192.47301
7.27178 -2.20151 192.605
7.4124799 -2.20348 192.77699
7.5508399 -2.20469 192.884
7.6863699 -2.20506 192.91499
7.8217902 -2.2053699 192.94299
7.95963 -2.2063501 193.028
8.0988102 -2.20766 193.14301
8.2377796 -2.2088699 193.248
8.3751898 -2.20963 193.315
8.5115995 -2.2100999 193.35699
8.6455803 -2.20994 193.343
8.7806902 -2.2100699 193.354
8.9170799 -2.21051 193.39301
9.0542297 -2.2111299 193.44701
9.1892796 -2.21122 193.455
9.3247499 -2.21141 193.47099
9.45856 -2.21121 193.453
9.5949697 -2.2116101 193.48801
9.7308798 -2.21188 193.51199
9.8680201 -2.21243 193.56
10.0027 -2.2124 193.558
10.1373 -2.2123699 193.55499
10.27 -2.2119501 193.51801
10.406 -2.21222 193.54201
10.5408 -2.21223 193.543
10.6804 -2.2132299 193.63
10.8172 -2.21365 193.66701
10.9566 -2.21456 193.74699
11.0993 -2.21612 193.883
11.2432 -2.2179 194.039
11.3846 -2.21912 194.145
11.5263 -2.2203901 194.257
11.6684 -2.2216899 194.371
11.8112 -2.2230999 194.494
11.9576 -2.2251401 194.672
12.1027 -2.2269199 194.828
12.2455 -2.22822 194.942
12.389 -2.22962 195.065
12.5341 -2.2312701 195.20799
12.6826 -2.23349 195.403
12.831 -2.2356501 195.592
12.9772 -2.23738 195.743
13.1186 -2.23826 195.82001
13.2679 -2.2404499 196.01199
13.4176 -2.2426701 196.20599
13.5633 -2.24418 196.338
13.7112 -2.2460101 196.498
13.8645 -2.2486801 196.73199
14.0256 -2.2525699 197.07201
14.184 -2.2559299 197.366
14.3429 -2.25932 197.66299
14.535 -2.2678199 198.40601
-11.2058 -2.0875299 194.48399
-11.0655 -2.0866101 194.399
-10.9248 -2.0855701 194.302
-10.7803 -2.0837901 194.136
-10.6359 -2.08198 193.967
-10.3433 -2.0774601 193.54601
-10.1959 -2.0748701 193.30499
-10.0491 -2.07235 193.071
-9.7544603 -2.06689 192.561
-9.60781 -2.0641799 192.30901
-9.4617796 -2.0615301 192.062
-9.3164301 -2.05896 191.823
-9.0300999 -2.05458 191.41499
-8.8868704 -2.0522699 191.2
-8.7481499 -2.0509601 191.077
-8.6156197 -2.05107 191.088
-8.4815102 -2.0508101 191.064
-8.3498602 -2.0511401 191.095
-8.2174397 -2.0513 191.10899
-8.0850601 -2.05146 191.12399
-7.9503698 -2.0510399 191.08501
-7.8161702 -2.05073 191.056
-7.68225 -2.0504899 191.034
-7.5482001 -2.0502 191.007
-7.2758298 -2.0483899 190.838
-7.1402302 -2.0476 190.765
-7.0051699 -2.0469401 190.703
-6.8687301 -2.04584 190.601
-6.73245 -2.04475 190.49899
-6.5952301 -2.04333 190.366
-6.4586201 -2.0420401 190.246
-6.3227501 -2.04093 190.14301
-6.1865602 -2.03967 190.026
-6.0512199 -2.03864 189.92999
-5.7820401 -2.0369699 189.774
-5.6474199 -2.0360701 189.69
-5.5138602 -2.0355101 189.638
-5.3810401 -2.0352099 189.61
-5.2485399 -2.0350101 189.591
-5.1156998 -2.0346701 189.56
-4.9829102 -2.0343299 189.528
-4.85005 -2.0339501 189.493
-4.5839701 -2.0329499 189.399
-4.4524999 -2.0331199 189.416
-4.3200798 -2.03286 189.39101
-4.1873298 -2.0324199 189.35001
-4.0550299 -2.0321801 189.328
-3.92293 -2.0320201 189.313
-3.79057 -2.0317199 189.285
-3.65855 -2.03158 189.272
-3.52599 -2.0311201 189.229
-3.3933499 -2.03058 189.179
-3.2611499 -2.0302701 189.14999
-3.12918 -2.0300801 189.132
-2.9969599 -2.0297 189.097
-2.86588 -2.0300901 189.134
-2.73366 -2.02969 189.09599
-2.6013999 -2.0292001 189.05
-2.4699199 -2.02931 189.06
-2.3382199 -2.0292301 189.05299
-2.20629 -2.0289299 189.02499
-2.0750501 -2.0292699 189.05701
-1.94364 -2.02949 189.077
-1.8115 -2.0289099 189.02299
-1.67978 -2.0287499 189.009
-1.54828 -2.0288501 189.01801
-1.41651 -2.02859 188.994
-1.28479 -2.0283599 188.972
-1.15344 -2.0287199 189.005
-1.02177 -2.0285299 188.987
-0.89005399 -2.0281799 188.955
-0.75870001 -2.0286801 189.002
-0.62717199 -2.02882 189.015
-0.49563801 -2.0290201 189.034
-0.36401299 -2.0288701 189.019
-0.23238499 -2.0285001 188.985
-0.10082 -2.02843 188.978
0.0307416 -2.0286801 189.002
0.162356 -2.0291901 189.049
0.294007 -2.02949 189.077
0.42565399 -2.0295899 189.08701
0.55719203 -2.0292399 189.054
0.68883997 -2.0293601 189.065
0.82061601 -2.0297501 189.101
0.95227599 -2.0297799 189.104
1.08488 -2.03157 189.271
1.2167701 -2.03179 189.29201
1.34874 -2.0320899 189.32001
1.48086 -2.0325301 189.36
1.61352 -2.0335901 189.459
1.74537 -2.03353 189.45399
1.87789 -2.03422 189.51801
2.01015 -2.03455 189.549
2.1422801 -2.0347199 189.564
2.2748599 -2.03527 189.616
2.4070799 -2.03545 189.633
2.53934 -2.03565 189.651
2.6716199 -2.03585 189.66901
2.80356 -2.0357699 189.662
2.9365499 -2.0364299 189.724
3.07444 -2.0402901 190.084
3.20509 -2.0392201 189.98399
3.3371501 -2.0391099 189.97301
3.46785 -2.0381999 189.888
3.5994699 -2.0378699 189.858
3.7304699 -2.03723 189.798
3.8622601 -2.03705 189.782
3.9939301 -2.0368199 189.75999
4.1240802 -2.0358601 189.67101
4.25422 -2.03495 189.586
4.3829298 -2.0334301 189.44501
4.5116801 -2.0320201 189.313
4.6403298 -2.0306499 189.185
4.7690802 -2.0293901 189.06799
4.8983402 -2.02842 188.97701
5.0282302 -2.02775 188.91499
5.1559 -2.0262401 188.774
5.2834201 -2.02474 188.63499
5.41116 -2.0234001 188.50999
5.5381699 -2.0218599 188.367
5.6649699 -2.0203199 188.22301
5.79357 -2.01947 188.144
5.9256001 -2.01983 188.177
6.05902 -2.0206399 188.252
6.1928 -2.0215299 188.33501
6.32903 -2.02316 188.48801
6.4669099 -2.02525 188.68201
6.6340399 -2.0362301 189.705
6.8561502 -2.0633299 192.23
6.9946699 -2.0647199 192.35899
7.1296501 -2.0650301 192.388
7.2694402 -2.06669 192.543
7.4110699 -2.06881 192.741
7.5469699 -2.0692899 192.785
7.6854701 -2.0704401 192.89301
7.8210802 -2.0707901 192.925
7.9591398 -2.07177 193.01601
8.0987396 -2.0731101 193.14101
8.2374802 -2.0741899 193.242
8.3747702 -2.0748701 193.30499
8.5111704 -2.07532 193.347
8.6454096 -2.0752299 193.339
8.7817698 -2.07565 193.37801
8.9180298 -2.07603 193.41299
9.0552902 -2.0766301 193.46899
9.1903801 -2.07673 193.478
9.3269796 -2.0771501 193.517
9.4612398 -2.07705 193.508
9.5981503 -2.0775299 193.552
9.7346802 -2.0779099 193.588
9.8696203 -2.07794 193.591
10.0053 -2.07813 193.60899
10.1397 -2.0780499 193.601
10.2746 -2.0780799 193.604
10.5428 -2.07781 193.57899
10.6812 -2.0785301 193.646
10.8186 -2.07902 193.692
10.9582 -2.0799201 193.776
11.0976 -2.08076 193.854
11.2409 -2.08231 193.998
11.3839 -2.08376 194.133
11.5272 -2.0852499 194.272
11.6704 -2.0866699 194.405
11.8135 -2.0880499 194.533
11.9582 -2.0896699 194.68401
12.1033 -2.09131 194.836
12.2454 -2.0924201 194.94
12.3885 -2.0936699 195.056
12.5336 -2.0952201 195.201
12.6825 -2.0973699 195.401
12.8299 -2.0992301 195.57401
12.9749 -2.1006601 195.70799
13.1171 -2.10162 195.797
13.2653 -2.1034999 195.97301
13.4153 -2.1056399 196.172
13.5617 -2.1071701 196.314
13.7095 -2.10888 196.474
13.8614 -2.1111901 196.689
14.0201 -2.11447 196.995
14.1813 -2.1180601 197.32899
14.336 -2.12062 197.56799
14.5056 -2.12532 198.005
-11.2107 -1.95292 194.569
-11.068 -1.95164 194.442
-10.9295 -1.95109 194.38699
-10.7823 -1.94894 194.173
-10.6389 -1.94743 194.02299
-10.4937 -1.94554 193.83501
-10.3468 -1.9433 193.61099
-10.2004 -1.94109 193.39101
-9.9064198 -1.93626 192.91
-9.7595701 -1.9337699 192.662
-9.6138697 -1.93145 192.42999
-9.1779299 -1.92431 191.71899
-9.0328598 -1.92184 191.47301
-8.7509804 -1.9184901 191.13901
-8.6154604 -1.91794 191.08501
-8.4804201 -1.91748 191.039
-8.3483601 -1.9177001 191.06
-8.2161102 -1.91787 191.078
-8.0841398 -1.91812 191.103
-7.9506102 -1.918 191.091
-7.8163199 -1.9177001 191.06
-7.68189 -1.91734 191.02499
-7.5489502 -1.9173501 191.026
-7.4131699 -1.91663 190.95399
-7.2768202 -1.91573 190.864
-7.14188 -1.91517 190.80901
-7.0068102 -1.91456 190.748
-6.87113 -1.9137599 190.668
-6.7344899 -1.91264 190.55701
-6.5974898 -1.9113899 190.43201
-6.4612999 -1.91032 190.325
-6.3247399 -1.90909 190.203
-6.1883602 -1.9078701 190.08099
-6.0535302 -1.9070801 190.002
-5.9183402 -1.90614 189.909
-5.7832999 -1.9052 189.81599
-5.6487498 -1.90439 189.735
-5.5145102 -1.90365 189.661
-5.38204 -1.9034899 189.645
-5.2492499 -1.90321 189.617
-5.1157699 -1.90266 189.563
-4.9834099 -1.90251 189.547
-4.8501101 -1.90198 189.495
-4.7171001 -1.90154 189.451
-4.5844498 -1.90123 189.41901
-4.4530201 -1.90141 189.438
-4.32022 -1.90101 189.397
-4.18748 -1.9006 189.35699
-4.0554099 -1.90049 189.34599
-3.9228499 -1.90013 189.31
-3.7909 -1.90004 189.30099
-3.65889 -1.89993 189.28999
-3.52649 -1.89959 189.256
-3.3938401 -1.89908 189.20599
-3.26179 -1.89889 189.187
-3.1298201 -1.89873 189.17
-2.7340901 -1.89827 189.125
-2.6019199 -1.8979 189.088
-2.47033 -1.89794 189.092
-2.3387301 -1.8979599 189.09399
-2.20661 -1.89755 189.05299
-2.07528 -1.89781 189.07899
-1.9438699 -1.89801 189.099
-1.8117501 -1.8975101 189.05
-1.67993 -1.89727 189.02499
-1.54818 -1.8970701 189.006
-1.41646 -1.89689 188.987
-1.28495 -1.89696 188.995
-1.15351 -1.89718 189.01601
-1.02191 -1.89715 189.013
-0.89014 -1.89675 188.97301
-0.75886899 -1.89745 189.04401
-0.62720799 -1.89728 189.026
-0.49570599 -1.89762 189.06
-0.36406499 -1.89748 189.04601
-0.100828 -1.89696 188.995
0.162368 -1.89765 189.063
0.29401901 -1.8978699 189.08501
0.42566499 -1.89794 189.092
0.55721802 -1.89765 189.063
0.68898302 -1.89806 189.104
0.82071 -1.89825 189.123
0.95242798 -1.89837 189.13499
1.0848 -1.89961 189.258
1.2165999 -1.89967 189.265
1.34872 -1.90019 189.31599
1.48092 -1.90072 189.369
1.6134599 -1.9015501 189.451
1.74529 -1.90149 189.44501
1.87798 -1.90231 189.52699
2.0100601 -1.90244 189.541
2.14206 -1.90248 189.545
2.2745099 -1.9029 189.586
2.40747 -1.90367 189.66299
2.53936 -1.9035701 189.653
2.6717501 -1.9038301 189.67799
2.8039999 -1.90396 189.692
2.9380701 -1.90528 189.823
3.0741401 -1.90771 190.065
3.20596 -1.90741 190.036
3.3385301 -1.90757 190.05099
3.46894 -1.90653 189.948
3.60008 -1.90595 189.89
3.7311699 -1.90539 189.834
3.8629701 -1.90521 189.817
3.99419 -1.90477 189.77299
4.12467 -1.90403 189.698
4.2541099 -1.90285 189.58099
4.3827701 -1.90142 189.438
4.5114999 -1.90009 189.306
4.6414599 -1.89934 189.23199
4.7697501 -1.89797 189.095
4.8989902 -1.89704 189.002
5.0286102 -1.89631 188.929
5.1578002 -1.89545 188.843
5.2839198 -1.89353 188.653
5.4124198 -1.89254 188.554
5.5378199 -1.89054 188.355
5.6649499 -1.88921 188.222
5.7933302 -1.88835 188.136
5.9258699 -1.88885 188.186
6.0587902 -1.8894399 188.245
6.1936598 -1.89061 188.36099
6.33043 -1.8923 188.53
6.4691901 -1.8945 188.74899
6.6353698 -1.90448 189.743
6.8558202 -1.92935 192.22099
6.9927702 -1.93021 192.30701
7.1272402 -1.93037 192.323
7.2659898 -1.9316601 192.452
7.4085302 -1.9339 192.675
7.5451798 -1.93455 192.739
7.6841302 -1.93575 192.85899
7.8193998 -1.936 192.884
7.9583602 -1.93714 192.99699
8.0982504 -1.93847 193.129
8.2361202 -1.93927 193.21001
8.3742304 -1.94011 193.293
8.50982 -1.94034 193.31599
8.6451502 -1.94051 193.33299
8.7818899 -1.94098 193.38
8.9179497 -1.9413 193.412
9.0571203 -1.94227 193.508
9.1926403 -1.94244 193.52499
9.3285103 -1.94268 193.549
9.46315 -1.94266 193.547
9.59904 -1.94289 193.57001
9.7374897 -1.94363 193.644
9.8735104 -1.9438699 193.668
10.0094 -1.94408 193.689
10.1444 -1.9441 193.69099
10.2784 -1.9439501 193.67599
10.4128 -1.9438699 193.668
10.5475 -1.94384 193.66499
10.6845 -1.94424 193.705
10.8217 -1.9446599 193.746
10.9619 -1.94561 193.841
11.1016 -1.94645 193.925
11.2423 -1.94743 194.022
11.3845 -1.94865 194.144
11.528 -1.95006 194.284
11.6721 -1.95154 194.43201
11.8159 -1.95294 194.571
11.9625 -1.95476 194.75301
12.1044 -1.95578 194.855
12.245 -1.95657 194.93401
12.3895 -1.95797 195.07201
12.5345 -1.95939 195.215
12.6825 -1.96128 195.40199
12.8308 -1.96315 195.589
12.9735 -1.9641401 195.688
13.1157 -1.96503 195.776
13.2623 -1.96657 195.929
13.4128 -1.96864 196.136
13.5586 -1.96998 196.269
13.7059 -1.9715101 196.422
13.8586 -1.97378 196.64799
14.0165 -1.97675 196.944
14.175 -1.97974 197.241
14.3295 -1.98211 197.478
14.4936 -1.98576 197.842
-11.362 -1.81993 194.841
-11.2141 -1.81794 194.62801
-11.0704 -1.81661 194.485
-10.9295 -1.81568 194.386
-10.7842 -1.814 194.20599
-10.6401 -1.8125 194.045
-10.4954 -1.81084 193.867
-10.3489 -1.80882 193.651
-10.0567 -1.80476 193.217
-9.9109097 -1.8027101 192.99699
-9.7648802 -1.80056 192.767
-9.4723597 -1.79598 192.27699
-9.3259201 -1.79356 192.01801
-9.1813498 -1.79144 191.78999
-8.89678 -1.78791 191.41299
-8.7547798 -1.78613 191.222
-8.6163301 -1.78502 191.104
-8.4805002 -1.78444 191.041
-8.34727 -1.78439 191.035
-8.2140999 -1.78435 191.03101
-7.9496698 -1.78469 191.06799
-7.8165498 -1.78467 191.06599
-7.6820502 -1.78432 191.02901
-7.54918 -1.78435 191.032
-7.4131699 -1.78362 190.95399
-7.2778502 -1.78304 190.89101
-7.1428599 -1.78251 190.83501
-7.0082798 -1.78207 190.78799
-6.8727899 -1.7813801 190.714
-6.7360702 -1.7803299 190.60201
-6.5998998 -1.7794 190.50101
-6.4635301 -1.77836 190.39101
-6.3262701 -1.77704 190.24899
-6.0558901 -1.77543 190.076
-5.9205098 -1.77451 189.978
-5.7848802 -1.7734801 189.867
-5.6504302 -1.77276 189.791
-5.5156398 -1.7719001 189.69901
-5.3824902 -1.7715501 189.661
-5.2498498 -1.77134 189.63901
-5.1164899 -1.77088 189.589
-4.9837399 -1.7706 189.56
-4.8503599 -1.77009 189.504
-4.7172298 -1.76963 189.45599
-4.5845599 -1.76934 189.424
-4.45332 -1.76958 189.451
-4.3203602 -1.76914 189.40401
-4.18753 -1.76873 189.35899
-4.0555501 -1.7686599 189.35201
-3.9231 -1.76838 189.32201
-3.7909801 -1.7682199 189.30499
-3.6589899 -1.7681299 189.295
-3.52668 -1.7678601 189.26601
-3.3943501 -1.76756 189.235
-3.26229 -1.76739 189.216
-3.13047 -1.7673301 189.21001
-2.9983001 -1.76706 189.181
-2.86675 -1.7671601 189.19099
-2.7346101 -1.76688 189.161
-2.60236 -1.7665 189.12
-2.4707501 -1.76653 189.12399
-2.3391099 -1.7665401 189.12399
-2.20702 -1.7661901 189.088
-2.0756099 -1.76638 189.108
-1.94398 -1.76641 189.11099
-1.81183 -1.76591 189.05701
-1.68005 -1.76574 189.039
-1.5483 -1.76557 189.02
-1.41655 -1.76536 188.998
-1.28495 -1.7653199 188.995
-1.15356 -1.7656 189.02499
-1.02196 -1.7655801 189.022
-0.890194 -1.7652299 188.985
-0.75890702 -1.76587 189.05299
-0.62724203 -1.76571 189.036
-0.495727 -1.76601 189.06799
-0.364079 -1.76587 189.05299
-0.232445 -1.76569 189.034
-0.100851 -1.76572 189.03799
0.030757099 -1.7662801 189.097
0.16240101 -1.76632 189.101
0.29405999 -1.76641 189.11099
0.557298 -1.76622 189.09
0.68909901 -1.7666399 189.136
0.82083201 -1.76678 189.151
0.952501 -1.76677 189.149
1.08477 -1.76773 189.252
1.21667 -1.76796 189.27699
1.34879 -1.76842 189.326
1.48084 -1.76872 189.35899
1.61316 -1.76926 189.416
1.7448699 -1.76911 189.39999
1.87761 -1.76995 189.49001
2.0097699 -1.77016 189.513
2.14166 -1.7701401 189.50999
2.2744401 -1.7708 189.58099
2.4072599 -1.77141 189.647
2.5393 -1.77143 189.64799
2.6719501 -1.77184 189.69299
2.80444 -1.77212 189.722
2.9388199 -1.77351 189.871
3.0757899 -1.77627 190.16701
3.20678 -1.7755001 190.08501
3.33917 -1.77554 190.088
3.46962 -1.77457 189.985
3.6008699 -1.77408 189.93201
3.73206 -1.77359 189.879
3.86379 -1.77338 189.85699
3.9946101 -1.7727799 189.793
4.25455 -1.77099 189.601
4.3829098 -1.76952 189.444
4.5118799 -1.76838 189.32201
4.6416101 -1.76759 189.23801
4.7704701 -1.76653 189.12399
4.9000101 -1.76577 189.04201
5.0289402 -1.76483 188.942
5.1580901 -1.76401 188.854
5.2843399 -1.76227 188.668
5.4115701 -1.7609299 188.52499
5.53755 -1.7592601 188.34599
5.6647501 -1.75804 188.215
5.7939701 -1.7575001 188.157
5.92589 -1.7577699 188.186
6.0587201 -1.7582999 188.243
6.1935802 -1.75939 188.35899
6.3316002 -1.76131 188.564
6.4704199 -1.76336 188.785
6.6345401 -1.7721 189.72
6.8547702 -1.79518 192.19099
6.9919801 -1.79606 192.285
7.1257 -1.79602 192.282
7.2631602 -1.7969199 192.377
7.40588 -1.79905 192.606
7.5429001 -1.79975 192.681
7.6826901 -1.80108 192.823
7.8191299 -1.80159 192.877
7.95754 -1.8025301 192.97701
8.0969801 -1.80366 193.099
8.2348404 -1.80441 193.17999
8.3725204 -1.8051 193.254
8.5092001 -1.80556 193.302
8.6451597 -1.80585 193.33299
8.7818203 -1.80628 193.379
8.9192696 -1.80685 193.44
9.0579596 -1.80765 193.526
9.1939001 -1.8078901 193.552
9.3298903 -1.80813 193.578
9.4642696 -1.8080601 193.57001
9.6016302 -1.80855 193.623
9.7388802 -1.80901 193.672
9.8757496 -1.8093801 193.71201
10.0121 -1.80966 193.741
10.1472 -1.8097 193.746
10.282 -1.80969 193.744
10.4191 -1.81006 193.785
10.5527 -1.80984 193.761
10.6895 -1.8101701 193.79601
10.8245 -1.81019 193.798
10.9648 -1.81107 193.89301
11.2436 -1.8125 194.045
11.384 -1.8133399 194.13499
11.5297 -1.81501 194.314
11.6749 -1.81655 194.479
11.8198 -1.81802 194.636
11.9639 -1.81933 194.776
12.1049 -1.82014 194.86301
12.2458 -1.82092 194.94701
12.3901 -1.82218 195.082
12.5348 -1.82348 195.22
12.6826 -1.8251801 195.403
12.8293 -1.82671 195.56599
12.9726 -1.82771 195.673
13.1141 -1.82845 195.752
13.261 -1.82991 195.909
13.4089 -1.83149 196.07899
13.5574 -1.83311 196.252
13.7043 -1.8344899 196.399
13.8571 -1.83662 196.62801
14.0138 -1.83921 196.905
14.1713 -1.84187 197.19
14.3242 -1.84389 197.40601
14.4929 -1.84787 197.83299
-11.0738 -1.68165 194.54401
-10.93 -1.68036 194.395
-10.7856 -1.67895 194.23199
-10.6419 -1.6776201 194.077
-10.4969 -1.6760401 193.894
-10.351 -1.67428 193.69099
-10.2055 -1.6725301 193.48801
-10.0599 -1.67071 193.278
-9.9144096 -1.66887 193.06599
-9.7697296 -1.66712 192.86301
-9.6238298 -1.66511 192.63
-9.4778605 -1.66302 192.38901
-9.3322096 -1.6609401 192.14799
-9.0436802 -1.6570899 191.702
-8.9014702 -1.65546 191.51401
-8.6191301 -1.65245 191.166
-8.48034 -1.65134 191.037
-8.3473797 -1.65135 191.03799
-8.2139101 -1.65125 191.02699
-8.0823002 -1.65153 191.05901
-7.9484 -1.65135 191.03799
-7.8161201 -1.65149 191.05499
-7.6828399 -1.65144 191.048
-7.5500202 -1.6514699 191.05299
-7.4152699 -1.65109 191.008
-7.2796202 -1.65048 190.937
-7.1457601 -1.65026 190.912
-7.0110502 -1.64984 190.86301
-6.8751602 -1.64911 190.78
-6.7383399 -1.6481301 190.666
-6.60184 -1.64719 190.55701
-6.4651599 -1.64617 190.439
-6.3281102 -1.645 190.304
-6.19279 -1.64425 190.217
-6.0584502 -1.64373 190.157
-5.9228301 -1.64283 190.05299
-5.7871399 -1.64187 189.94099
-5.6521001 -1.64105 189.847
-5.51759 -1.64035 189.76601
-5.3833599 -1.6397099 189.692
-5.2507701 -1.63954 189.672
-5.1169801 -1.63898 189.60699
-4.98383 -1.6386 189.564
-4.8506298 -1.63818 189.515
-4.7170401 -1.63761 189.44901
-4.58465 -1.63743 189.42799
-4.4534502 -1.63767 189.45599
-4.3208098 -1.63739 189.423
-4.1877699 -1.63693 189.37
-4.0560598 -1.6369801 189.37601
-3.92347 -1.63666 189.339
-3.7911501 -1.63644 189.314
-3.6592801 -1.63641 189.31
-3.5273399 -1.63634 189.302
-3.3949699 -1.63606 189.269
-3.2630799 -1.63599 189.261
-3.1312499 -1.63595 189.257
-2.9988501 -1.6356 189.216
-2.86724 -1.6356601 189.224
-2.73509 -1.63541 189.194
-2.60285 -1.63508 189.15601
-2.4711201 -1.63504 189.151
-2.3394101 -1.63502 189.149
-2.2073901 -1.63476 189.119
-2.0759399 -1.63493 189.13901
-1.94409 -1.63477 189.121
-1.81192 -1.63432 189.06799
-1.68025 -1.6342601 189.061
-1.54839 -1.63401 189.032
-1.41658 -1.63375 189.00301
-1.2849801 -1.63372 188.99899
-1.1536 -1.63399 189.03
-1.022 -1.63399 189.03
-0.89023501 -1.63367 188.993
-0.75898898 -1.63437 189.073
-0.627294 -1.6341799 189.052
-0.49573901 -1.63436 189.07201
-0.364115 -1.6343499 189.07201
-0.23247901 -1.6342601 189.061
-0.100873 -1.6344 189.078
0.030764099 -1.63494 189.14
0.162421 -1.63481 189.125
0.29411 -1.6349699 189.14301
0.425798 -1.63503 189.151
0.55739301 -1.6347899 189.12199
0.68919998 -1.6351399 189.16299
0.82108802 -1.63554 189.21001
0.95275497 -1.63546 189.2
1.08496 -1.6362 189.285
1.2167701 -1.63625 189.29201
1.3487099 -1.6364501 189.314
1.48075 -1.63673 189.347
1.61295 -1.63712 189.392
1.7447 -1.63703 189.382
1.8774 -1.63778 189.46899
2.0095699 -1.638 189.494
2.14152 -1.63802 189.49699
2.2743199 -1.63866 189.571
2.4070499 -1.6391799 189.63
2.53929 -1.63933 189.647
2.6723199 -1.63994 189.71899
2.80497 -1.64028 189.758
2.9395599 -1.64167 189.91901
3.0757799 -1.64381 190.16701
3.20735 -1.6434 190.118
3.3389699 -1.64303 190.076
3.4698701 -1.64237 189.99899
3.6015201 -1.6420799 189.966
3.7330699 -1.64178 189.931
3.8652201 -1.64175 189.927
3.9960899 -1.6411901 189.86301
4.1262002 -1.64037 189.769
4.2551198 -1.63915 189.627
4.38276 -1.6375099 189.438
4.51267 -1.6368001 189.355
4.6416502 -1.6358 189.239
4.9010901 -1.63445 189.08299
5.0292602 -1.63333 188.953
5.1575198 -1.63229 188.83299
5.2845898 -1.6309299 188.677
5.41046 -1.62928 188.48599
5.5370598 -1.62793 188.32899
5.66433 -1.62683 188.202
5.7944598 -1.62658 188.173
5.9261599 -1.62677 188.19501
6.0585098 -1.62713 188.23599
6.1937199 -1.62823 188.36301
6.3316398 -1.62998 188.56599
6.4712701 -1.63208 188.80901
6.63203 -1.63933 189.64799
6.8534799 -1.661 192.155
6.99124 -1.66195 192.265
7.1251101 -1.66196 192.26601
7.26123 -1.66248 192.326
7.4031 -1.66427 192.533
7.5401502 -1.66494 192.61
7.6813502 -1.6664799 192.789
7.81775 -1.66695 192.843
7.9567299 -1.66794 192.95799
8.0946798 -1.66869 193.04401
8.2326803 -1.66942 193.129
8.3705301 -1.6701 193.207
8.5079899 -1.67068 193.27499
8.6448498 -1.6711299 193.326
8.7818699 -1.67159 193.38
8.9194603 -1.67215 193.444
9.0589199 -1.67303 193.547
9.1950998 -1.6733 193.577
9.3315201 -1.6735899 193.612
9.4663601 -1.6736 193.61301
9.60394 -1.67409 193.66901
9.7406101 -1.67441 193.70599
9.8780403 -1.67485 193.757
10.0145 -1.6751 193.786
10.1503 -1.6752599 193.80499
10.2852 -1.6752599 193.804
10.4221 -1.67558 193.841
10.5561 -1.6754301 193.82401
10.6936 -1.67583 193.871
10.8305 -1.6761301 193.90601
11.111 -1.6777101 194.088
11.2495 -1.67822 194.147
11.3895 -1.6789401 194.23
11.533 -1.68014 194.369
11.6773 -1.68144 194.52
11.8209 -1.6826 194.653
11.9657 -1.68391 194.80499
12.1062 -1.68458 194.883
12.2471 -1.6853 194.966
12.3911 -1.68643 195.097
12.5361 -1.68767 195.24001
12.6833 -1.68918 195.414
12.829 -1.69045 195.562
12.9725 -1.6914099 195.672
13.1137 -1.69205 195.74699
13.2609 -1.69344 195.908
13.4063 -1.69458 196.03999
13.7029 -1.69752 196.38
14.0109 -1.70172 196.866
14.167 -1.704 197.13
14.3191 -1.70578 197.33501
14.4851 -1.70916 197.726
14.6586 -1.7133501 198.211
-11.2245 -1.54826 194.81
-11.0762 -1.54649 194.58701
-10.9313 -1.54515 194.418
-10.7851 -1.5436 194.224
-10.6419 -1.5424401 194.077
-10.4973 -1.5410399 193.901
-10.3518 -1.53949 193.70599
-10.2066 -1.53792 193.508
-10.0614 -1.53632 193.308
-9.9167004 -1.53475 193.11
-9.7729597 -1.53329 192.927
-9.6276503 -1.53154 192.70599
-9.4828701 -1.52983 192.491
-9.3375397 -1.52797 192.257
-9.1930399 -1.5262001 192.035
-9.0485096 -1.52438 191.80499
-8.76439 -1.52141 191.43201
-8.6229696 -1.51998 191.25101
-8.4829798 -1.51875 191.097
-8.3473101 -1.51827 191.036
-8.21385 -1.51818 191.02499
-8.08181 -1.51836 191.048
-7.9482799 -1.51826 191.035
-7.8158302 -1.51836 191.048
-7.6839199 -1.51858 191.075
-7.5494499 -1.51829 191.03799
-7.4155402 -1.5181 191.015
-7.28053 -1.51768 190.961
-7.1479902 -1.51776 190.972
-7.0130501 -1.5173301 190.918
-6.8769798 -1.5166301 190.83
-6.7407598 -1.51587 190.735
-6.60393 -1.51494 190.618
-6.4668999 -1.51393 190.49001
-6.3305898 -1.5130399 190.379
-6.1949301 -1.51228 190.283
-6.0599198 -1.51165 190.203
-5.92416 -1.51079 190.095
-5.7883902 -1.5099 189.983
-5.6533298 -1.50915 189.888
-5.5184398 -1.50841 189.79601
-5.3844299 -1.50788 189.729
-5.2512202 -1.50756 189.688
-5.1174798 -1.5070601 189.62601
-4.9843702 -1.50673 189.584
-4.8509598 -1.5062799 189.528
-4.7174501 -1.50578 189.465
-4.5850801 -1.50563 189.446
-4.4538898 -1.50586 189.47501
-4.32125 -1.5056 189.44299
-4.18822 -1.50519 189.39101
-4.05619 -1.50512 189.382
-3.92413 -1.50504 189.371
-3.7915101 -1.50472 189.332
-3.6598101 -1.50477 189.33701
-3.52789 -1.50472 189.33099
-3.3954301 -1.5044301 189.295
-3.26352 -1.50437 189.287
-3.1315899 -1.50429 189.27699
-2.9990499 -1.5039001 189.229
-2.8675201 -1.50401 189.242
-2.7353201 -1.50375 189.21001
-2.60324 -1.5035501 189.18401
-2.4714701 -1.5035 189.17799
-2.33969 -1.50345 189.172
-2.2077 -1.50325 189.147
-2.0762 -1.5033799 189.162
-1.94434 -1.50324 189.145
-1.81203 -1.50271 189.07899
-1.68038 -1.50269 189.076
-1.54857 -1.50251 189.054
-1.41663 -1.50217 189.00999
-1.2850699 -1.50219 189.013
-1.15365 -1.50239 189.039
-1.02198 -1.50229 189.026
-0.89026701 -1.50209 189
-0.75904399 -1.50278 189.08701
-0.62735897 -1.50266 189.07201
-0.49579301 -1.50283 189.093
-0.36414501 -1.50278 189.08701
-0.23249599 -1.5026799 189.075
-0.100886 -1.5029 189.103
0.030765001 -1.50324 189.145
0.162431 -1.50317 189.136
0.29416001 -1.50348 189.17599
0.42585799 -1.50349 189.177
0.55743402 -1.50317 189.136
0.68926197 -1.50352 189.17999
0.82118899 -1.50394 189.233
0.95301801 -1.50409 189.252
1.08514 -1.5046099 189.31799
1.21688 -1.50454 189.308
1.34865 -1.5045201 189.306
1.48067 -1.50476 189.336
1.61288 -1.5051399 189.384
1.74462 -1.5050499 189.373
1.87735 -1.50577 189.464
2.0095999 -1.50603 189.496
2.14152 -1.50604 189.49699
2.2743199 -1.50662 189.57001
2.4070301 -1.50709 189.629
2.5394299 -1.50732 189.658
2.6728101 -1.50808 189.754
2.80533 -1.5082999 189.782
2.93958 -1.5094 189.92
3.07477 -1.51086 190.104
3.20664 -1.51064 190.076
3.33866 -1.5105 190.05901
3.4700201 -1.51009 190.007
3.6022501 -1.51007 190.005
3.734 -1.50986 189.978
3.86676 -1.51006 190.00301
3.9972 -1.50937 189.916
4.1261101 -1.50816 189.76401
4.25453 -1.50686 189.60001
4.3829398 -1.50562 189.44501
4.5132599 -1.5051 189.38
4.64219 -1.50416 189.261
4.7719898 -1.5035501 189.18401
4.9020801 -1.50305 189.12199
5.0300798 -1.50196 188.98399
5.15762 -1.50079 188.83701
5.2853098 -1.49972 188.702
5.4094601 -1.49772 188.451
5.53619 -1.49652 188.299
5.6639199 -1.49563 188.188
5.7950501 -1.4956599 188.192
5.9260802 -1.49567 188.19299
6.0592499 -1.4962 188.25999
6.1937699 -1.49704 188.36501
6.3309798 -1.49848 188.54601
6.47154 -1.50064 188.817
6.8518701 -1.5268 192.11
6.9913502 -1.52806 192.26801
7.12604 -1.52824 192.291
7.26089 -1.52845 192.317
7.4010701 -1.52975 192.481
7.53826 -1.5304 192.562
7.6799002 -1.5319099 192.75301
7.8164601 -1.53238 192.811
7.95509 -1.5332299 192.918
8.0921297 -1.5337501 192.983
8.23034 -1.53447 193.07401
8.3683796 -1.53513 193.158
8.5072403 -1.53593 193.258
8.6441603 -1.53635 193.311
8.7818098 -1.53689 193.379
8.9195099 -1.53742 193.44501
9.0590401 -1.53824 193.549
9.1957397 -1.53857 193.591
9.3321304 -1.5388401 193.62399
9.4674797 -1.5389301 193.636
9.6051102 -1.53938 193.69299
9.7426395 -1.5398099 193.746
9.8800802 -1.54021 193.797
10.0162 -1.5404 193.821
10.1525 -1.54061 193.847
10.2876 -1.54063 193.85001
10.4239 -1.54082 193.87399
10.5609 -1.5411201 193.912
10.6998 -1.54168 193.98199
10.8377 -1.5420901 194.033
10.9798 -1.54307 194.157
11.1182 -1.54353 194.215
11.2566 -1.54396 194.269
11.5372 -1.54533 194.44099
11.6797 -1.54627 194.55901
11.9683 -1.54856 194.847
12.1079 -1.54907 194.911
12.2488 -1.54972 194.993
12.5378 -1.55189 195.26601
12.6837 -1.55311 195.42
12.8291 -1.55425 195.563
12.973 -1.55518 195.67999
13.1135 -1.55568 195.743
13.2599 -1.55687 195.89301
13.4053 -1.55792 196.02499
13.5549 -1.55943 196.216
13.7008 -1.5605 196.349
13.8524 -1.56217 196.56
14.0072 -1.56418 196.813
14.1633 -1.56629 197.078
14.3152 -1.5678999 197.282
14.4771 -1.57056 197.616
14.6579 -1.57522 198.201
-11.3775 -1.41473 195.10699
-11.2274 -1.41294 194.86
-11.078 -1.41117 194.617
-10.9316 -1.40977 194.424
-10.7859 -1.40842 194.237
-10.6413 -1.40718 194.06599
-10.4972 -1.40597 193.89999
-10.3519 -1.40458 193.707
-10.2071 -1.40321 193.519
-10.0631 -1.40192 193.341
-9.9188604 -1.40055 193.15199
-9.7753201 -1.39925 192.97301
-9.6308498 -1.3977799 192.77
-9.4869499 -1.39635 192.573
-9.3424196 -1.3947901 192.358
-9.1986799 -1.3933001 192.15199
-8.9117603 -1.39028 191.735
-8.7702799 -1.38901 191.561
-8.4879303 -1.3864599 191.20799
-8.3491697 -1.38552 191.07899
-8.2148705 -1.3853 191.049
-8.0816603 -1.38527 191.04401
-7.9489899 -1.3853199 191.052
-7.8161402 -1.38535 191.056
-7.6848001 -1.38565 191.097
-7.54985 -1.3853 191.049
-7.4154801 -1.38504 191.013
-7.28089 -1.38473 190.97099
-7.1478901 -1.38472 190.96899
-7.0136099 -1.38446 190.933
-6.8781199 -1.38394 190.86099
-6.7426901 -1.38342 190.789
-6.6059198 -1.3825901 190.675
-6.4687901 -1.38165 190.54601
-6.33318 -1.3810101 190.457
-6.1968899 -1.38018 190.343
-6.0612202 -1.37946 190.243
-5.9257002 -1.37874 190.145
-5.78968 -1.37787 190.02499
-5.6542401 -1.37711 189.91901
-5.5192199 -1.37641 189.823
-5.38486 -1.3758399 189.745
-5.25212 -1.37567 189.72099
-5.1186199 -1.37529 189.668
-4.9851699 -1.3749 189.614
-4.8516998 -1.37448 189.55701
-4.7181702 -1.37402 189.494
-4.5857601 -1.37388 189.474
-4.4542499 -1.374 189.49001
-4.3216801 -1.37379 189.46201
-4.1886001 -1.3734 189.408
-4.0565701 -1.37334 189.39999
-3.9245 -1.37326 189.38901
-3.7920001 -1.3730299 189.356
-3.66028 -1.37306 189.362
-3.52827 -1.37299 189.35201
-3.3956699 -1.3726799 189.308
-3.26369 -1.3726 189.297
-3.1317401 -1.37252 189.287
-2.9993601 -1.3722399 189.248
-2.86783 -1.37235 189.263
-2.7356999 -1.37216 189.23599
-2.6035099 -1.37192 189.20399
-2.4716699 -1.37185 189.19299
-2.3399501 -1.37184 189.19299
-2.2079 -1.37163 189.164
-2.0762801 -1.37167 189.17
-1.94449 -1.3716 189.16
-1.81224 -1.37117 189.10001
-1.68058 -1.37116 189.09801
-1.5488501 -1.37108 189.088
-1.4168299 -1.37071 189.037
-1.2852401 -1.37072 189.03799
-1.1537 -1.37078 189.047
-1.02196 -1.3706 189.022
-0.89034897 -1.3705699 189.01801
-0.75909603 -1.37117 189.10001
-0.62740898 -1.37107 189.086
-0.49584299 -1.37126 189.112
-0.36418599 -1.37123 189.10899
-0.232517 -1.37111 189.092
-0.100891 -1.37125 189.11099
0.030768801 -1.37167 189.16901
0.162452 -1.37161 189.161
0.29419601 -1.3718899 189.19901
0.425915 -1.37191 189.203
0.55751401 -1.37163 189.16299
0.68933898 -1.37191 189.202
0.82128602 -1.3723 189.256
0.95315403 -1.37247 189.27901
1.08524 -1.37286 189.334
1.21702 -1.37284 189.33
1.34874 -1.3727601 189.319
1.48071 -1.37292 189.342
1.61299 -1.37332 189.397
1.74488 -1.37335 189.401
1.8775001 -1.37391 189.479
2.00985 -1.37422 189.521
2.14185 -1.3742599 189.526
2.2745199 -1.3747 189.58701
2.4072001 -1.3751 189.642
2.5396399 -1.37533 189.674
2.6731 -1.37606 189.77499
2.8057201 -1.37631 189.80901
2.9393101 -1.37699 189.903
3.0736001 -1.37793 190.032
3.20597 -1.37796 190.037
3.33882 -1.37819 190.06799
3.47052 -1.3779401 190.034
3.6032901 -1.37813 190.05901
3.73506 -1.37793 190.032
3.8674099 -1.37795 190.035
3.9974899 -1.37719 189.92999
4.1256099 -1.37582 189.741
4.2544899 -1.3747801 189.59801
4.3845601 -1.37418 189.515
4.5138602 -1.3733799 189.405
4.6437702 -1.3728 189.325
4.7736001 -1.3722399 189.248
5.0305099 -1.37045 189.00101
5.2859998 -1.36847 188.72701
5.4085698 -1.36624 188.42
5.5346298 -1.36498 188.246
5.6642599 -1.36464 188.19901
5.7954402 -1.3646801 188.205
5.9268298 -1.36476 188.216
6.0598302 -1.3652101 188.278
6.1936998 -1.3658201 188.36301
6.3316202 -1.36729 188.565
6.4727898 -1.36938 188.854
6.8485198 -1.39231 192.01601
6.9913101 -1.39413 192.267
7.1263499 -1.39437 192.299
7.2613902 -1.39459 192.33
7.3996601 -1.39542 192.444
7.6780701 -1.39732 192.707
