# .PCD v0.7 - Point Cloud Data file format
VERSION 0.7
FIELDS x y z
SIZE 4 4 4
TYPE F F F
COUNT 1 1 1
WIDTH 1749
HEIGHT 1
VIEWPOINT 0 0 0 1 0 0 0
POINTS 1749
DATA ascii
2.3341501 21.491199 194.558
2.47069 21.5007 194.644
2.6082399 21.517599 194.797
2.74489 21.525801 194.871
2.88184 21.5355 194.95799
3.0193501 21.548201 195.07401
3.1568501 21.5599 195.179
3.2947099 21.5728 195.297
3.4325099 21.5844 195.40199
3.5710299 21.599501 195.53799
3.7100599 21.616501 195.69099
3.8479099 21.6255 195.774
3.9862001 21.6364 195.87199
4.1251798 21.6502 195.99699
4.2656598 21.6707 196.18201
4.4064898 21.6917 196.37199
4.5462599 21.706301 196.505
4.68787 21.7286 196.707
4.8295798 21.750099 196.901
4.9727898 21.776899 197.144
5.1150999 21.7985 197.34
5.2636099 21.8447 197.758
5.42627 21.945801 198.673
5.6115799 22.131201 200.351
5.78754 22.271601 201.62199
5.9502702 22.3556 202.383
6.1084299 22.419001 202.957
-15.0203 22.463699 202.08701
-14.8768 22.459499 202.049
-14.7348 22.4575 202.03101
-14.5911 22.452801 201.99001
-14.449 22.4505 201.96899
-14.3026 22.441299 201.886
-8.3379803 20.878901 187.83
-8.2073498 20.8792 187.83299
-8.0757103 20.877001 187.813
-7.9440799 20.874599 187.79201
-7.8126702 20.872801 187.776
-7.6816301 20.872 187.76801
-7.5503702 20.870501 187.754
-7.2874198 20.8661 187.715
-7.15552 20.862499 187.683
-7.0253401 20.863899 187.69501
-6.8961601 20.868401 187.735
-6.7660398 20.870199 187.75101
-6.6361299 20.872601 187.774
-6.5058498 20.8741 187.787
-6.3748899 20.873301 187.78
-6.2441001 20.8731 187.778
-6.11379 20.8745 187.78999
-5.9841399 20.8783 187.82401
-5.855 20.884001 187.87601
-5.72509 20.887199 187.905
-5.5952802 20.891001 187.939
-5.4654102 20.8946 187.972
-5.3348899 20.896 187.98399
-5.2052498 20.9009 188.028
-5.0762 20.908501 188.09599
-4.9452 20.908199 188.09399
-4.8152699 20.9126 188.134
-4.6852002 20.916599 188.17
-4.5553799 20.9221 188.218
-4.4263 20.931299 188.30099
-4.29669 20.9384 188.366
-4.1653199 20.937201 188.355
-4.03513 20.942101 188.399
-3.9052801 20.9491 188.46201
-3.7756701 20.957899 188.541
-3.6461799 20.9681 188.632
-3.5164001 20.9772 188.715
-3.3859601 20.983 188.76601
-3.2557001 20.9904 188.83299
-3.1252799 20.9974 188.896
-2.9957099 21.0109 189.01801
-2.86606 21.025101 189.146
-2.7358999 21.0368 189.25
-2.6055601 21.0481 189.35201
-2.4751301 21.0599 189.459
-2.3442299 21.068899 189.539
-2.2130301 21.076 189.603
-2.0829301 21.0951 189.77499
-1.95202 21.108101 189.892
-1.82133 21.1255 190.049
-1.69065 21.145901 190.23199
-1.55962 21.1649 190.403
-1.42831 21.1833 190.56799
-1.29708 21.2066 190.778
-1.1656801 21.232401 191.00999
-0.90183997 21.282 191.457
-0.76959199 21.310699 191.715
-0.63696402 21.338699 191.966
-0.50395799 21.3654 192.207
-0.37051901 21.3866 192.39799
-0.236876 21.4132 192.63699
-0.10285 21.4296 192.784
0.031389501 21.4519 192.985
0.165851 21.4667 193.118
0.30048099 21.4804 193.241
0.435278 21.493799 193.362
0.57014102 21.503401 193.448
0.70524001 21.5165 193.56599
0.84064102 21.5331 193.716
0.97570801 21.5378 193.758
1.11079 21.541599 193.79201
1.24664 21.5578 193.938
1.38211 21.5651 194.00301
1.5181 21.5783 194.12199
1.65386 21.586399 194.19501
1.7895 21.591801 194.244
1.92558 21.601601 194.33099
2.0618999 21.6124 194.429
2.19803 21.6201 194.498
2.3345001 21.6299 194.58701
2.47119 21.640699 194.683
2.60864 21.6567 194.827
2.7451501 21.663601 194.88901
2.8821599 21.6737 194.98
3.0197201 21.686701 195.09801
3.1572299 21.6984 195.202
3.29528 21.712601 195.33099
3.4329801 21.723499 195.42799
3.5715799 21.7391 195.56799
3.7105801 21.7558 195.71899
3.8482101 21.763599 195.789
3.98682 21.776199 195.903
4.1261101 21.791599 196.041
4.2666602 21.812401 196.228
4.4070101 21.830999 196.395
4.5475702 21.8494 196.561
4.6891899 21.871799 196.76199
4.8312998 21.895 196.97099
4.97401 21.9196 197.19299
5.1163702 21.9415 197.38901
5.2651801 21.9891 197.817
5.4253402 22.0804 198.63901
5.6147099 22.2831 200.463
5.7933302 22.4345 201.82401
5.95401 22.5107 202.50999
6.11169 22.572399 203.065
-15.0183 22.601601 202.062
-14.8785 22.6029 202.073
-14.7359 22.5998 202.04601
-14.5897 22.5914 201.97
-14.4451 22.5851 201.914
-14.3035 22.583401 201.899
-14.1577 22.5751 201.825
-8.3334904 20.9984 187.729
-8.2026501 20.997999 187.726
-8.0703802 20.9939 187.689
-7.9387298 20.991301 187.66499
-7.67588 20.987 187.627
-7.5449901 20.9863 187.62
-7.4141598 20.985701 187.61501
-7.28262 20.983 187.591
-7.1506901 20.979 187.556
-7.0197001 20.9778 187.54401
-6.8900099 20.9804 187.56799
-6.7603102 20.9832 187.593
-6.2395902 20.988701 187.642
-6.10953 20.9907 187.66
-5.9797201 20.9935 187.685
-5.8506899 20.999399 187.73801
-5.7206302 21.001699 187.759
-5.5910101 21.0058 187.795
-5.4605598 21.006901 187.80499
-5.3299398 21.007401 187.80901
-5.2003598 21.0121 187.851
-4.9408102 21.020599 187.927
-4.8104901 21.0228 187.94701
-4.6807699 21.0278 187.992
-4.5509 21.032499 188.033
-4.42134 21.038799 188.09
-4.2922902 21.0481 188.173
-4.1614599 21.048901 188.181
-4.0311098 21.052401 188.211
-3.7720201 21.0688 188.358
-3.64237 21.0774 188.435
-3.51263 21.086 188.51199
-3.3826699 21.093901 188.58299
-3.2527599 21.1029 188.66299
-3.1224 21.109501 188.722
-2.8631201 21.135201 188.952
-2.73317 21.147499 189.062
-2.6029301 21.1586 189.161
-2.3417699 21.1786 189.34
-2.2107 21.185699 189.403
-2.0803101 21.2006 189.536
-1.9493901 21.2118 189.63699
-1.8189501 21.230101 189.80099
-1.6885099 21.2514 189.991
-1.5577 21.271299 190.168
-1.42644 21.288099 190.319
-1.16391 21.332899 190.71899
-0.90041101 21.3815 191.15401
-0.76841497 21.411501 191.422
-0.503299 21.471201 191.95599
-0.37005499 21.493601 192.15601
-0.102768 21.546801 192.631
0.165746 21.587601 192.996
0.30037001 21.607 193.16901
0.43505299 21.6173 193.26199
0.56990701 21.6292 193.369
0.70503598 21.645 193.50999
0.84033799 21.6602 193.646
0.97549498 21.667999 193.715
1.11079 21.6766 193.79201
1.2465301 21.691099 193.922
1.38204 21.698999 193.993
1.5180399 21.7127 194.114
1.65387 21.721901 194.19701
1.78957 21.728001 194.252
1.92571 21.7383 194.34399
2.0620899 21.7498 194.446
2.1981399 21.7565 194.507
2.3345399 21.7658 194.59
2.4713299 21.777599 194.69501
2.60885 21.7941 194.842
2.7453101 21.8006 194.901
2.8826399 21.813101 195.01199
3.02003 21.8249 195.118
3.1574399 21.8358 195.215
3.29567 21.851299 195.354
3.43327 21.8615 195.44501
3.57199 21.877701 195.59
3.7111299 21.895399 195.748
3.8487501 21.903099 195.817
3.9875801 21.916901 195.94
4.2676101 21.954 196.272
4.40768 21.9711 196.425
4.5488901 21.992701 196.618
4.6907601 22.016199 196.828
4.8330402 22.0401 197.04201
4.9756598 22.064301 197.258
5.1181202 22.0865 197.457
5.2665901 22.1327 197.87
5.4241199 22.213699 198.59399
5.6164999 22.429899 200.52699
5.7974901 22.5912 201.96899
5.9566598 22.6619 202.601
6.1138 22.721701 203.13499
-15.0164 22.739401 202.036
-14.8767 22.7409 202.049
-14.7324 22.7353 201.99899
-14.5875 22.7285 201.939
-14.4435 22.723101 201.89101
-14.302 22.721701 201.87801
-14.1596 22.7187 201.85201
-14.0205 22.721001 201.87199
-8.32899 21.1178 187.62801
-8.1979704 21.1168 187.619
-7.9333901 21.1078 187.539
-7.8021202 21.1059 187.522
-7.6711102 21.104601 187.50999
-7.5402999 21.1038 187.504
-7.4095602 21.103201 187.498
-7.27808 21.1005 187.474
-7.1458802 21.095501 187.42999
-7.0150499 21.0944 187.42
-6.8854098 21.097 187.44299
-6.7554202 21.098499 187.457
-6.6256199 21.1008 187.47701
-6.4951901 21.101 187.479
-6.36448 21.100401 187.47301
-6.23491 21.1035 187.50101
-6.10496 21.1056 187.519
-5.9754601 21.1092 187.552
-5.8464098 21.1147 187.60001
-5.7163301 21.1166 187.618
-5.5868702 21.121 187.65601
-5.4569502 21.1238 187.681
-5.3264699 21.124399 187.687
-5.1965499 21.127399 187.714
-5.0675302 21.134399 187.77499
-4.9369402 21.134899 187.78
-4.8062501 21.135 187.78101
-4.67658 21.139799 187.82401
-4.5468998 21.1448 187.868
-4.4173899 21.1509 187.922
-4.2881198 21.1586 187.99001
-4.1577501 21.1611 188.013
-4.0272799 21.1633 188.032
-3.8976099 21.17 188.091
-3.76771 21.1758 188.144
-3.6386499 21.187 188.242
-3.3794899 21.2054 188.40601
-3.24951 21.212999 188.474
-3.1194999 21.221201 188.54601
-2.9893701 21.2292 188.618
-2.8601601 21.244801 188.756
-2.6003599 21.2693 188.974
-2.4698801 21.278601 189.05701
-2.33954 21.290199 189.159
-2.2088399 21.2997 189.244
-1.94731 21.3211 189.43401
-1.81688 21.337999 189.58501
-1.5556099 21.375099 189.914
-1.42468 21.394199 190.084
-1.29348 21.412901 190.25
-1.16234 21.4368 190.46201
-1.03096 21.462099 190.687
-0.89911699 21.4837 190.879
-0.767322 21.514099 191.149
-0.63525802 21.548201 191.452
-0.502608 21.575199 191.692
-0.36950099 21.5951 191.869
-0.236301 21.628901 192.16901
-0.102662 21.6584 192.431
0.031336099 21.6838 192.65601
0.30022201 21.730801 193.07401
0.43483099 21.740801 193.16299
0.56964397 21.753901 193.27901
0.70468801 21.7691 193.414
0.83993602 21.7847 193.55299
0.97523898 21.797199 193.66499
1.11067 21.809299 193.772
1.2463599 21.8232 193.895
1.38188 21.8318 193.97099
1.51791 21.846001 194.09801
1.65379 21.856001 194.187
1.7895499 21.8631 194.25
1.92582 21.874901 194.355
2.0621901 21.886299 194.45599
2.1983099 21.8937 194.522
2.3346901 21.9028 194.60201
2.47137 21.9135 194.69701
2.6087699 21.929199 194.83701
2.74527 21.9361 194.89799
2.8828101 21.9503 195.024
3.0201399 21.961599 195.125
3.29601 21.989599 195.37399
3.43362 21.9998 195.465
3.57233 22.0161 195.60899
3.7116001 22.0345 195.77299
3.8494 22.0431 195.849
3.9884801 22.0583 195.98399
4.12814 22.0755 196.13699
4.2687001 22.096399 196.32201
4.4088802 22.114 196.479
4.5502501 22.136299 196.677
4.8347402 22.1852 197.112
4.9776301 22.210501 197.336
5.1199799 22.2321 197.528
5.2674398 22.2742 197.90199
5.4233098 22.3487 198.565
5.6173 22.5728 200.55499
5.8011599 22.7463 202.097
5.9593201 22.8132 202.69099
6.11485 22.8671 203.17
-15.0108 22.8715 201.96001
-14.872 22.874399 201.985
-14.73 22.8722 201.966
-14.588 22.870001 201.94701
-14.4472 22.8696 201.94299
-14.3048 22.866699 201.91701
-14.1621 22.8633 201.88699
-14.0173 22.8564 201.826
-13.8783 22.8589 201.84801
-8.1928997 21.234301 187.502
-8.0607796 21.230101 187.466
-7.9278002 21.223499 187.407
-7.7962899 21.2206 187.382
-7.66608 21.2213 187.388
-7.4042802 21.2187 187.36501
-7.2734199 21.217501 187.354
-7.1415401 21.2131 187.31599
-7.0104599 21.2111 187.298
-6.8803301 21.211901 187.30499
-6.7504802 21.2136 187.32001
-6.62081 21.2159 187.34
-6.4907098 21.216999 187.35001
-6.36023 21.216801 187.34801
-6.2306299 21.219601 187.373
-5.8421998 21.230101 187.465
-5.7128301 21.234301 187.502
-4.6730199 21.254499 187.681
-4.5432901 21.258801 187.71899
-4.41399 21.2654 187.77699
-4.15481 21.277 187.88
-4.02387 21.276199 187.873
-3.7641301 21.2866 187.965
-3.6353099 21.2985 188.07001
-3.5061901 21.3095 188.16701
-3.3764801 21.3176 188.23801
-3.24646 21.324301 188.297
-3.1161301 21.3295 188.343
-2.98628 21.338499 188.423
-2.8573899 21.355499 188.573
-2.7272699 21.364599 188.653
-2.5973101 21.375799 188.75301
-2.4670601 21.3859 188.841
-2.2068999 21.412701 189.078
-2.0762401 21.422701 189.166
-1.94537 21.4317 189.245
-1.68433 21.462799 189.521
-1.55375 21.481501 189.686
-1.42296 21.500601 189.854
-1.2917399 21.516399 189.993
-1.02934 21.5609 190.386
-0.76610798 21.613001 190.847
-0.63432699 21.649799 191.172
-0.50194198 21.68 191.438
-0.369001 21.6994 191.60899
-0.23589499 21.725401 191.839
0.0312993 21.792299 192.42999
0.165444 21.816601 192.644
0.29993999 21.844801 192.89301
0.43452999 21.860201 193.02901
0.56926203 21.8738 193.14999
0.70422602 21.8894 193.28799
0.83949703 21.9081 193.452
0.974962 21.9259 193.61
1.11042 21.939301 193.728
1.24602 21.9522 193.842
1.3817199 21.9643 193.948
1.51764 21.9774 194.064
1.65364 21.989401 194.17
1.78953 21.9981 194.24699
1.92588 22.011 194.36099
2.0622799 22.022699 194.464
2.1984999 22.031099 194.539
2.33497 22.041 194.62601
2.47138 22.0492 194.69901
2.6086099 22.063499 194.82401
2.7451999 22.071199 194.89301
2.88274 22.0856 195.019
3.0204 22.0994 195.142
3.1577599 22.110001 195.235
3.2962699 22.127399 195.38901
3.43398 22.1383 195.485
3.7120099 22.1733 195.79401
3.85007 22.183399 195.884
3.9893701 22.199699 196.028
4.1293001 22.218399 196.19299
4.2695098 22.237301 196.35899
4.4101 22.257 196.533
4.5518098 22.280899 196.744
4.6938601 22.305099 196.95799
4.8362298 22.329399 197.172
4.9789801 22.354 197.39
5.1213899 22.375799 197.58299
5.2683201 22.4158 197.935
5.4233198 22.487101 198.565
5.6205301 22.725599 200.67101
5.8041301 22.8988 202.2
5.9620299 22.9648 202.783
6.1157699 23.0121 203.201
-15.0063 23.0054 201.89999
-14.8706 23.012899 201.966
-14.7276 23.0091 201.93201
-14.5887 23.0117 201.955
-14.4471 23.010201 201.942
-14.304 23.006201 201.907
-14.1623 23.004299 201.89
-14.0187 22.999201 201.84599
-13.8768 22.997 201.826
-13.7349 22.9946 201.80499
-13.5931 22.992399 201.786
-8.1886301 21.3538 187.405
-8.0567198 21.349899 187.371
-7.9240198 21.3438 187.31799
-7.7918701 21.339001 187.276
-7.6613698 21.338699 187.272
-7.53053 21.3374 187.261
-7.4000602 21.337 187.258
-7.2695298 21.3365 187.254
-7.1380501 21.3332 187.224
-7.0066099 21.3298 187.19501
-6.6163001 21.3319 187.213
-6.4864998 21.333599 187.228
-6.3562999 21.334101 187.23199
-6.2262101 21.3349 187.24001
-6.0963202 21.3365 187.254
-5.9667702 21.339399 187.27901
-5.83781 21.344601 187.32401
-5.7088499 21.35 187.37199
-5.5784798 21.3503 187.37399
-5.4486499 21.352699 187.395
-5.3183198 21.353201 187.39999
-5.1883402 21.355101 187.41701
-5.05972 21.363001 187.48599
-4.9297099 21.365101 187.505
-4.7990799 21.3647 187.50101
-4.6688299 21.365999 187.51199
-4.5392098 21.3703 187.55
-4.4102802 21.378201 187.619
-4.2814498 21.3871 187.698
-4.1518102 21.392401 187.744
-4.02106 21.392099 187.742
-3.89113 21.3964 187.77901
-3.76123 21.400999 187.82001
-3.63185 21.4091 187.89101
-3.50245 21.4177 187.966
-3.3729601 21.426399 188.04201
-3.2435501 21.436199 188.129
-3.11325 21.4408 188.16901
-2.9835801 21.450399 188.25301
-2.8540399 21.4617 188.35201
-2.72456 21.4746 188.466
-2.4645 21.495001 188.645
-2.33408 21.503401 188.718
-2.2044201 21.5201 188.86501
-1.94322 21.5396 189.036
-1.81273 21.552799 189.15199
-1.68239 21.57 189.30299
-1.55206 21.590099 189.479
-1.42151 21.6108 189.661
-1.29019 21.622801 189.76601
-1.15925 21.644501 189.95599
-1.02803 21.666 190.145
-0.89655101 21.6875 190.334
-0.76503497 21.7155 190.58
-0.63333398 21.7488 190.87199
-0.50116098 21.7794 191.14
-0.235544 21.8265 191.554
-0.102335 21.856701 191.81799
0.1652 21.9184 192.36
0.299519 21.948299 192.62199
0.434091 21.972401 192.834
0.56872201 21.987499 192.967
0.703767 22.009701 193.162
0.83883703 22.025499 193.3
0.97452003 22.0508 193.522
1.11011 22.0681 193.674
1.24559 22.079599 193.77499
1.38138 22.0938 193.89999
1.51726 22.107 194.015
1.65334 22.120501 194.134
1.78943 22.1322 194.23599
1.9256999 22.1443 194.343
2.0622799 22.1581 194.464
2.19857 22.1674 194.54601
2.3350699 22.1775 194.63499
2.47137 22.184799 194.698
2.6083901 22.1973 194.808
2.74506 22.2059 194.883
2.8826101 22.2204 195.00999
3.0206101 22.2369 195.155
3.15801 22.2477 195.25
3.2964499 22.264799 195.39999
3.43419 22.2759 195.49699
3.5731499 22.293699 195.65401
3.7123799 22.311899 195.814
3.8504601 22.3221 195.90401
3.9902401 22.3412 196.071
4.1305099 22.361601 196.25
4.2702799 22.378099 196.395
4.4109001 22.3979 196.56799
4.5524502 22.421101 196.772
4.6949801 22.447599 197.005
4.8372102 22.471201 197.21201
4.9796801 22.4946 197.41701
5.1222301 22.517099 197.61501
5.2686901 22.555201 197.94901
5.4234099 22.625799 198.56799
5.6188898 22.8587 200.612
5.8049202 23.0427 202.228
5.96382 23.113001 202.84399
6.1170602 23.158501 203.244
-14.8629 23.1415 201.86099
-14.7273 23.1493 201.92799
-14.5853 23.146999 201.909
-14.3013 23.142401 201.868
-14.1607 23.1423 201.867
-14.0195 23.141199 201.858
-13.8764 23.136801 201.819
-13.7338 23.133301 201.789
-13.5928 23.132401 201.78101
-13.4513 23.130699 201.76601
-13.3101 23.129299 201.754
-8.0519695 21.4678 187.261
-7.9197502 21.4627 187.217
-7.7880802 21.459 187.185
-7.6570501 21.457001 187.16701
-7.52633 21.455799 187.15601
-7.3960099 21.4557 187.15601
-7.26547 21.455 187.149
-7.0027299 21.448299 187.091
-6.87184 21.446301 187.073
-6.7418399 21.4471 187.08
-6.6122098 21.448999 187.097
-6.4825602 21.451 187.114
-6.3526201 21.452101 187.12399
-6.2220402 21.451 187.114
-6.09165 21.4505 187.11
-5.9623599 21.454 187.14101
-5.8334699 21.459101 187.185
-5.7044001 21.4638 187.226
-5.5741601 21.464199 187.229
-5.44384 21.464199 187.23
-4.9253302 21.4767 187.338
-4.5354199 21.483 187.394
-4.4061399 21.488701 187.44299
-4.2776999 21.499001 187.533
-4.14849 21.506001 187.59399
-4.0177798 21.5054 187.589
-3.8880899 21.510401 187.632
-3.75846 21.516001 187.68201
-3.62866 21.521099 187.726
-3.4992399 21.528799 187.793
-3.3698699 21.5375 187.869
-3.2402799 21.5455 187.939
-3.1103699 21.551901 187.995
-2.9809201 21.562201 188.084
-2.85097 21.5697 188.149
-2.7218699 21.5846 188.28
-2.5913 21.5888 188.31599
-2.4614201 21.5994 188.409
-2.33126 21.6087 188.49001
-2.2016399 21.624399 188.627
-2.0716901 21.638599 188.75101
-1.94113 21.648001 188.832
-1.81084 21.6619 188.955
-1.68066 21.679501 189.108
-1.55013 21.695101 189.244
-1.2888 21.731501 189.562
-1.15777 21.749001 189.714
-1.0269099 21.774799 189.939
-0.89553601 21.795401 190.119
-0.76404703 21.82 190.334
-0.63247401 21.8521 190.61301
-0.50039798 21.8792 190.849
-0.36796099 21.9044 191.069
-0.235204 21.9282 191.27699
-0.102159 21.9524 191.48801
0.031203801 21.993099 191.843
0.164994 22.0249 192.121
0.29904401 22.0474 192.317
0.56801999 22.094601 192.728
0.70316899 22.1255 192.998
0.83810103 22.140699 193.13
0.97383702 22.17 193.386
1.10944 22.1896 193.55701
1.245 22.204 193.683
1.38079 22.2195 193.81799
1.51676 22.2348 193.952
1.65283 22.248899 194.07401
1.7891901 22.2645 194.211
1.9252 22.273899 194.293
2.06197 22.290199 194.435
2.19837 22.3008 194.52699
2.3350799 22.3132 194.63499
2.4714301 22.3209 194.702
2.60834 22.3326 194.80499
2.7450199 22.341299 194.88
2.8824899 22.355301 195.002
3.02075 22.3738 195.164
3.15817 22.3848 195.25999
3.29671 22.402599 195.41499
3.4344499 22.4137 195.51199
3.57357 22.4326 195.677
3.71259 22.4496 195.825
3.8508501 22.460899 195.923
3.9909999 22.482 196.108
4.1314301 22.5033 196.293
4.27074 22.5173 196.416
4.41151 22.538 196.59599
4.5527802 22.559799 196.787
4.6954999 22.587299 197.02699
4.83781 22.611401 197.237
4.9804802 22.635799 197.44901
5.2699499 22.6985 197.996
5.42413 22.767099 198.595
5.6181102 22.995199 200.584
5.8102198 23.2048 202.41299
5.96597 23.2626 202.91701
6.1173401 23.3011 203.25301
-14.7229 23.2829 201.868
-14.4397 23.279499 201.838
-14.2983 23.278 201.825
-14.1588 23.279699 201.84
-14.0189 23.280701 201.84801
-13.8777 23.279699 201.839
-13.7356 23.276899 201.81599
-13.5943 23.2756 201.804
-13.3123 23.273701 201.787
-13.1716 23.2733 201.784
-13.0335 23.277599 201.82201
-7.9153299 21.5811 187.112
-7.78409 21.5784 187.089
-7.6521702 21.573601 187.048
-7.5217199 21.572901 187.04201
-7.2613802 21.5732 187.04401
-7.1301699 21.5702 187.01801
-6.9990802 21.5674 186.994
-6.8681502 21.565001 186.97301
-6.7379999 21.5651 186.97301
-6.6084599 21.567101 186.991
-6.4790201 21.5695 187.01199
-6.3494401 21.5716 187.03
-6.2189398 21.570601 187.021
-5.9583702 21.569901 187.015
-5.8293099 21.5741 187.052
-5.5703602 21.5798 187.101
-5.4398198 21.578699 187.092
-5.3094501 21.578199 187.08701
-5.1798701 21.5809 187.11099
-5.0509501 21.5867 187.161
-4.9222498 21.593599 187.22099
-4.7918 21.5931 187.217
-4.6616902 21.5942 187.226
-4.5324101 21.599199 187.269
-4.4026399 21.6021 187.295
-4.2741399 21.611601 187.377
-4.1448698 21.6178 187.42999
-4.0146599 21.6192 187.44299
-3.8852301 21.625099 187.494
-3.7556601 21.6306 187.541
-3.6257 21.634199 187.573
-3.49613 21.6404 187.627
-3.36707 21.6504 187.713
-3.23735 21.656799 187.769
-3.10779 21.664801 187.839
-2.97822 21.673599 187.91499
-2.84832 21.680599 187.97501
-2.7195101 21.696899 188.117
-2.5887401 21.6985 188.13
-2.3290701 21.719601 188.313
-2.1991899 21.731501 188.41701
-2.06951 21.7472 188.55299
-1.80876 21.768499 188.73801
-1.6788599 21.787901 188.90601
-1.54843 21.802999 189.037
-1.41793 21.819901 189.183
-1.2873501 21.8389 189.34801
-1.02557 21.878401 189.69
-0.76307499 21.9247 190.091
-0.63151997 21.9517 190.326
-0.499612 21.977501 190.55
-0.367443 22.006399 190.8
-0.23484001 22.0273 190.981
-0.102006 22.0527 191.202
0.0311513 22.0895 191.52
0.298583 22.1472 192.02
0.56722999 22.197901 192.46001
0.70243502 22.236601 192.79601
0.97311598 22.2882 193.243
1.24419 22.3244 193.55701
1.37995 22.341 193.701
1.5160201 22.3589 193.85699
1.6522501 22.3762 194.006
1.78877 22.3946 194.16499
1.92476 22.4041 194.248
2.0615599 22.4212 194.396
2.19803 22.4328 194.49699
2.3348999 22.447001 194.62
2.4713299 22.455601 194.69501
2.6083801 22.468599 194.808
2.7450299 22.4771 194.881
2.8824999 22.491199 195.00301
3.1584001 22.522499 195.27499
3.29702 22.5408 195.433
3.4347899 22.552099 195.53101
3.57376 22.570101 195.688
3.7127199 22.5867 195.832
3.85111 22.598801 195.936
3.9913299 22.620501 196.12399
4.1318302 22.6423 196.313
4.2709699 22.655399 196.42599
4.4121699 22.678301 196.625
4.5531301 22.698601 196.802
4.69555 22.7248 197.02901
4.9814901 22.777901 197.489
5.1251602 22.8055 197.728
5.4252601 22.9102 198.636
5.6175399 23.132601 200.564
5.8148799 23.3645 202.575
5.9671998 23.4088 202.959
6.11689 23.441 203.23801
-14.7123 23.4067 201.72301
-14.5752 23.4121 201.769
-14.4348 23.412201 201.77
-14.2939 23.411501 201.76401
-14.1546 23.413401 201.78101
-14.0169 23.4181 201.821
-13.8814 23.426399 201.89301
-13.7398 23.424601 201.877
-13.5961 23.419201 201.83
-13.457 23.4217 201.85201
-13.3165 23.4217 201.85201
-13.1748 23.4195 201.83299
-7.91079 21.6989 187.005
-7.77981 21.696699 186.98599
-7.6478901 21.691799 186.94299
-7.5170898 21.689899 186.927
-7.3873801 21.691099 186.937
-7.2572498 21.691099 186.937
-7.1263199 21.6887 186.91701
-6.9956899 21.687099 186.903
-6.8648701 21.6849 186.884
-6.7346802 21.684601 186.881
-6.2157898 21.6898 186.92599
-6.0851898 21.6882 186.912
-5.9548402 21.6873 186.905
-5.8256998 21.691 186.936
-5.6968198 21.6957 186.97701
-5.5664001 21.6947 186.96899
-5.43571 21.6926 186.95
-5.3057299 21.6933 186.95599
-5.17663 21.697701 186.994
-5.0478201 21.703501 187.045
-4.9188199 21.7089 187.091
-4.78829 21.7076 187.08
-4.6582899 21.7087 187.089
-4.5286698 21.7117 187.11501
-4.39891 21.7141 187.136
-4.26998 21.721001 187.19501
-4.14113 21.728701 187.261
-4.0118098 21.734301 187.31
-3.8821001 21.738199 187.343
-3.7525001 21.742901 187.384
-3.62275 21.747101 187.42
-3.4932499 21.753201 187.472
-3.3642001 21.7626 187.554
-3.2348599 21.770901 187.625
-3.1050899 21.7768 187.675
-2.9754901 21.7845 187.742
-2.84569 21.791401 187.80099
-2.7164199 21.803101 187.903
-2.5859399 21.805901 187.92599
-2.4562399 21.815901 188.013
-2.3268499 21.829901 188.134
-2.19683 21.839399 188.215
-2.0671101 21.853201 188.334
-1.93715 21.8661 188.44501
-1.8067501 21.8757 188.528
-1.5466599 21.909599 188.82001
-1.41614 21.924 188.944
-1.1550601 21.9617 189.269
-1.02428 21.982901 189.452
-0.89319801 22.002701 189.62199
-0.761998 22.025999 189.823
-0.63058901 22.051701 190.045
-0.36691701 22.107599 190.52699
-0.234547 22.1327 190.743
-0.101864 22.1551 190.936
0.031099301 22.185801 191.2
0.164488 22.224199 191.53101
0.43217099 22.2764 191.98199
0.70142502 22.338699 192.519
0.83695 22.378901 192.86501
1.10768 22.423599 193.25
1.24304 22.4384 193.37801
1.37898 22.4601 193.564
1.51489 22.477301 193.713
1.65149 22.500999 193.918
1.7882299 22.523001 194.10699
1.92431 22.5341 194.203
2.0609801 22.5502 194.342
2.1975999 22.5639 194.459
2.33447 22.5784 194.584
2.4709799 22.587999 194.66701
2.6083601 22.6042 194.806
2.74512 22.6136 194.88699
2.88287 22.6299 195.028
3.0211301 22.6486 195.189
3.1586399 22.660299 195.28999
3.29719 22.678101 195.444
3.4351499 22.690701 195.552
3.5738399 22.7069 195.692
3.71293 22.7244 195.843
3.8513999 22.737 195.951
3.9918101 22.7598 196.14799
4.1320701 22.7803 196.32401
4.4126902 22.8179 196.64799
4.55336 22.8368 196.811
4.69559 22.8622 197.03
4.8389001 22.8913 197.28101
4.9825802 22.9205 197.532
5.1261301 22.9475 197.765
5.2725301 22.9856 198.093
5.4257302 23.0506 198.653
5.6140399 23.257799 200.439
5.8161302 23.510599 202.618
5.9674602 23.551201 202.968
6.1164699 23.5809 203.224
-14.5696 23.543501 201.69099
-14.43 23.544901 201.703
-14.2901 23.5457 201.71001
-14.1511 23.5481 201.73
-14.0156 23.556499 201.802
-13.8832 23.5702 201.92
-13.7408 23.566999 201.892
-13.5963 23.5602 201.83299
-13.458 23.5639 201.866
-13.3173 23.5637 201.864
-13.1764 23.562901 201.85699
-13.0345 23.5606 201.83701
-12.894 23.560499 201.836
-12.7537 23.5609 201.84
-12.6112 23.5571 201.808
-7.6446199 21.812599 186.86301
-7.5135899 21.8099 186.84
-7.38344 21.8097 186.838
-7.2533898 21.8097 186.838
-7.1231699 21.809299 186.834
-6.9927402 21.8081 186.82401
-6.8622098 21.806601 186.811
-6.7316999 21.805099 186.799
-6.60216 21.806801 186.813
-6.4723501 21.8076 186.82001
-6.34267 21.808901 186.83099
-6.2125101 21.8085 186.828
-6.08219 21.8076 186.82001
-5.9518099 21.8064 186.80901
-5.8222399 21.808201 186.825
-5.6930599 21.811501 186.854
-5.5627198 21.810499 186.845
-4.65487 21.823 186.952
-4.5253501 21.826 186.978
-4.3954902 21.827499 186.99001
-4.2665401 21.833799 187.04401
-4.1377702 21.8414 187.10899
-4.0086098 21.8473 187.16
-3.87907 21.851601 187.19701
-3.7493 21.854799 187.224
-3.62008 21.8615 187.282
-3.4904001 21.8659 187.319
-3.3613701 21.8748 187.396
-3.2318001 21.8808 187.44701
-3.1027501 21.891001 187.534
-2.97278 21.8953 187.571
-2.8433199 21.9039 187.645
-2.71386 21.9133 187.726
-2.5836 21.917 187.757
-2.45382 21.9252 187.828
-2.32429 21.9368 187.927
-2.1946499 21.9487 188.02901
-2.0650401 21.962299 188.145
-1.9352 21.9753 188.256
-1.6746401 21.9956 188.42999
-1.54474 22.0138 188.586
-1.41443 22.028999 188.717
-1.28424 22.0494 188.89101
-1.1534899 22.063601 189.013
-1.02298 22.0867 189.211
-0.892021 22.1056 189.37199
-0.62968099 22.1521 189.771
-0.49820101 22.180099 190.011
-0.366395 22.2087 190.256
-0.23421501 22.233999 190.47301
-0.10172 22.2565 190.66499
0.0310502 22.283701 190.89799
0.164187 22.3167 191.181
0.29786301 22.3606 191.55701
0.43156901 22.378901 191.714
0.565633 22.4028 191.918
0.70021999 22.4342 192.188
0.83578801 22.482 192.597
0.97098202 22.5079 192.819
1.10655 22.535101 193.052
1.24194 22.5532 193.20799
1.3777 22.573799 193.384
1.51385 22.5966 193.57899
1.65029 22.6196 193.776
1.78742 22.6479 194.019
1.92354 22.660299 194.125
2.0600801 22.6758 194.257
2.1969199 22.692301 194.399
2.3339901 22.709299 194.54401
2.47071 22.7211 194.645
2.60818 22.7383 194.793
2.7451 22.749201 194.886
2.88322 22.768499 195.052
3.02127 22.785601 195.198
3.15869 22.7967 195.293
3.2972 22.814301 195.444
3.4352901 22.827801 195.56
3.5737 22.8424 195.68401
3.71293 22.860901 195.843
3.85167 22.875099 195.965
3.9922199 22.8988 196.168
4.1318898 22.916 196.315
4.2713599 22.931101 196.44501
4.4128098 22.9555 196.65401
4.5535898 22.9751 196.82201
4.6957402 23.0002 197.037
4.83953 23.0317 197.30701
4.9835501 23.062599 197.571
5.12748 23.0914 197.81799
5.2733402 23.1271 198.12399
5.42628 23.191299 198.674
5.6064801 23.3659 200.16901
5.81495 23.6469 202.577
5.9672198 23.691601 202.96001
6.11589 23.7202 203.205
-14.427 23.6805 201.661
-14.2862 23.679701 201.65401
-14.1464 23.680799 201.664
-14.0133 23.693001 201.76801
-13.8817 23.7082 201.897
-13.7388 23.704201 201.86301
-13.5944 23.697399 201.80499
-13.4528 23.6954 201.78799
-13.1757 23.7024 201.847
-13.0358 23.7036 201.858
-12.8935 23.700199 201.82899
-12.7516 23.6975 201.806
-12.6097 23.694901 201.784
-12.47 23.6964 201.797
-7.5111499 21.932899 186.77901
-7.3804998 21.931101 186.763
-7.2498598 21.929199 186.74699
-7.1194601 21.9279 186.737
-6.98873 21.9256 186.717
-6.85853 21.924999 186.711
-6.7284498 21.924601 186.70799
-6.5987201 21.925501 186.715
-6.4688301 21.9258 186.718
-6.3393798 21.927601 186.73399
-6.2092299 21.927099 186.729
-6.0790801 21.9265 186.724
-5.94908 21.9265 186.724
-5.68893 21.9258 186.718
-5.5591698 21.926701 186.726
-5.4284301 21.923599 186.7
-5.2989898 21.9259 186.71899
-5.1688499 21.9252 186.713
-5.0396299 21.928499 186.741
-4.91085 21.933901 186.78799
-4.7808599 21.934099 186.789
-4.6509099 21.9345 186.79201
-4.5219498 21.939699 186.83701
-4.39219 21.941299 186.85001
-4.2631202 21.946501 186.894
-4.1346102 21.954901 186.966
-4.0055299 21.9608 187.017
-3.8759601 21.9643 187.047
-3.74668 21.969801 187.093
-3.61713 21.9741 187.129
-3.48756 21.9785 187.16701
-3.35865 21.987499 187.244
-3.2288499 21.991301 187.276
-3.0994799 21.9984 187.336
-2.8408201 22.0152 187.479
-2.7114201 22.0243 187.55701
-2.58167 22.0313 187.616
-2.4518099 22.037901 187.673
-2.3222599 22.048401 187.763
-2.19227 22.055599 187.82401
-1.93321 22.083599 188.062
-1.80304 22.0928 188.14
-1.6728801 22.1036 188.23199
-1.4129699 22.137501 188.521
-1.28262 22.152901 188.65199
-1.02157 22.187901 188.95
-0.89090598 22.2097 189.136
-0.75993901 22.2302 189.31
-0.62877703 22.2523 189.49899
-0.497504 22.2813 189.746
-0.233907 22.337299 190.22301
-0.101587 22.3601 190.41701
0.0310055 22.384399 190.62399
0.163954 22.417999 190.909
0.29741299 22.4601 191.26801
0.56485599 22.505501 191.655
0.83422101 22.5737 192.23599
0.96958899 22.609699 192.543
1.10508 22.6395 192.797
1.24051 22.6618 192.98599
1.37622 22.6842 193.177
1.51246 22.7106 193.40199
1.6487401 22.7332 193.59399
1.78631 22.7689 193.89799
1.9225 22.7833 194.02
2.0592101 22.801399 194.175
2.1961999 22.820299 194.336
2.3334601 22.8396 194.5
2.4702799 22.852699 194.612
2.6079199 22.8717 194.77299
2.7447801 22.8822 194.86301
2.88288 22.9016 195.02901
3.02124 22.921301 195.196
3.1585801 22.9319 195.286
3.29706 22.949499 195.436
3.43521 22.963499 195.556
3.5734701 22.9772 195.672
3.71295 22.9974 195.84399
3.8518 23.0124 195.97099
3.99189 23.033501 196.15199
4.1312199 23.049 196.284
4.4124298 23.0905 196.63699
4.6961699 23.139601 197.05499
4.8403502 23.1731 197.34
4.9843602 23.204 197.603
5.1282101 23.232401 197.84599
5.2747202 23.2712 198.175
5.4273901 23.3344 198.714
5.6030402 23.4909 200.04601
5.8134098 23.781799 202.524
5.9664402 23.829901 202.933
6.11516 23.8589 203.181
-14.4246 23.816999 201.627
-14.2814 23.8123 201.588
-14.1417 23.8134 201.597
-14.0104 23.8286 201.726
-13.8784 23.843201 201.85001
-13.7363 23.840401 201.826
-13.5904 23.830999 201.746
-13.449 23.829201 201.731
-13.3121 23.8356 201.785
-13.1772 23.845699 201.871
-13.0388 23.8496 201.903
-12.8957 23.8449 201.864
-12.7512 23.8374 201.80099
-12.6089 23.8339 201.771
-12.4675 23.832199 201.757
-12.333 23.8438 201.854
-12.1865 23.8319 201.754
-7.5086298 22.055599 186.716
-7.2472401 22.0513 186.67999
-7.1161699 22.0478 186.64999
-6.9851999 22.0446 186.623
-6.8551102 22.044001 186.618
-6.7249198 22.0431 186.61
-6.5949402 22.0429 186.608
-6.4648399 22.0422 186.603
-6.3357601 22.045099 186.627
-6.07581 22.044701 186.62399
-5.9461899 22.045799 186.633
-5.8155999 22.043301 186.612
-5.68571 22.0434 186.61301
-5.5559602 22.044001 186.618
-5.42557 22.042101 186.601
-5.2963901 22.045099 186.627
-5.1662102 22.044001 186.618
-5.0367699 22.046 186.63499
-4.9074602 22.0488 186.659
-4.77774 22.049801 186.66701
-4.1315198 22.068701 186.827
-4.0026002 22.075001 186.88
-3.8729501 22.077499 186.90199
-3.74406 22.0847 186.963
-3.61467 22.089399 187.002
-3.4850199 22.092699 187.03
-3.3563001 22.102501 187.11301
-3.22647 22.1054 187.138
-3.09638 22.1068 187.149
-2.9672501 22.1154 187.222
-2.8381701 22.125099 187.30499
-2.7090099 22.135201 187.39
-2.57973 22.1453 187.47501
-2.3201101 22.158701 187.589
-2.1900599 22.164101 187.63499
-2.0605099 22.175699 187.733
-1.93106 22.189899 187.853
-1.80086 22.197001 187.914
-1.54129 22.2267 188.164
-1.41141 22.244301 188.314
-1.15061 22.2712 188.54201
-1.02025 22.290701 188.70599
-0.88984197 22.314699 188.91
-0.75905001 22.335899 189.089
-0.49676901 22.380301 189.465
-0.365363 22.4104 189.72
-0.101469 22.4666 190.19501
0.163743 22.5219 190.66299
0.29697299 22.5599 190.985
0.43047601 22.5886 191.229
0.56410003 22.6087 191.39799
0.69801301 22.6304 191.582
0.83280897 22.669201 191.911
0.968009 22.7068 192.229
1.10358 22.7428 192.534
1.23867 22.7623 192.69901
1.37441 22.7887 192.923
1.51098 22.822901 193.21201
1.64718 22.846399 193.411
1.78478 22.8843 193.73199
2.0582399 22.9259 194.084
2.1954801 22.948099 194.272
2.33253 22.9659 194.423
2.4697299 22.983101 194.56799
2.6073401 23.002199 194.73
2.74436 23.0145 194.834
2.88221 23.032101 194.983
3.0208099 23.054001 195.168
3.1582601 23.0655 195.26601
3.29688 23.0844 195.425
3.43503 23.098499 195.545
3.57338 23.112801 195.66701
3.71312 23.134899 195.853
3.85186 23.1492 195.974
3.9915199 23.167999 196.134
4.1310802 23.1849 196.27699
4.4122701 23.226601 196.629
4.5540099 23.2514 196.84
4.6967301 23.2796 197.078
4.84091 23.3132 197.36301
4.9844098 23.341801 197.605
5.1283998 23.371099 197.853
5.27492 23.410101 198.183
5.4291 23.4802 198.77699
5.8129601 23.921 202.508
5.9660802 23.969801 202.92101
6.1151199 24.000299 203.179
-14.2765 23.944401 201.51801
-14.0064 23.9624 201.66901
-13.8726 23.9737 201.765
-13.7326 23.974501 201.771
-13.5868 23.9652 201.69299
-13.4447 23.962099 201.66701
-13.3097 23.9718 201.748
-13.1754 23.983 201.843
-13.039 23.990499 201.90601
-12.8969 23.987801 201.883
-12.7517 23.978901 201.808
-12.6121 23.9806 201.823
-12.4725 23.982401 201.838
-12.3313 23.9811 201.826
-12.1947 23.9886 201.89
-12.0558 23.992001 201.91901
-7.24475 22.1737 186.616
-7.1136699 22.17 186.58501
-6.9826102 22.1663 186.554
-6.85219 22.164499 186.539
-6.7216501 22.1623 186.52
-6.59161 22.161699 186.51401
-6.4615302 22.160801 186.507
-6.3319898 22.1619 186.51601
-6.20259 22.1635 186.53
-6.07231 22.1619 186.51601
-5.9423099 22.161301 186.511
-5.8122902 22.1607 186.506
-5.6825299 22.1609 186.508
-5.5524998 22.1602 186.502
-5.1635299 22.162399 186.521
-5.0331101 22.159901 186.49899
-4.9040098 22.1632 186.52699
-4.7750902 22.1675 186.564
-4.64573 22.17 186.584
-4.5157299 22.1695 186.58
-4.3867002 22.1738 186.617
-4.25734 22.176701 186.64101
-4.1284699 22.1824 186.689
-3.9997101 22.1891 186.745
-3.8704901 22.1936 186.783
-3.7411201 22.1975 186.81599
-3.6115401 22.2003 186.84
-3.4821501 22.2047 186.87601
-3.3531201 22.2117 186.936
-3.0947499 22.225401 187.05099
-2.96503 22.229099 187.082
-2.83587 22.237499 187.153
-2.7065201 22.2453 187.218
-2.5775199 22.2568 187.315
-2.44753 22.2605 187.34599
-2.31774 22.2666 187.397
-2.1881101 22.275 187.468
-2.05845 22.2841 187.545
-1.92897 22.2966 187.64999
-1.79907 22.3057 187.72701
-1.66895 22.313299 187.791
-1.53942 22.3307 187.937
-1.40975 22.3491 188.092
-1.27967 22.3641 188.218
-1.14926 22.376101 188.319
-0.88848603 22.4121 188.62199
-0.62712502 22.4571 189.00101
-0.49597099 22.476101 189.161
-0.36477599 22.506399 189.41499
-0.233247 22.5385 189.686
-0.101321 22.566 189.91701
0.030924501 22.590799 190.12601
0.29647401 22.654699 190.664
0.429939 22.693501 190.99001
0.69693297 22.7286 191.286
0.831348 22.762899 191.57401
0.96663201 22.808201 191.955
1.10186 22.841299 192.23399
1.23683 22.8624 192.412
1.37221 22.886299 192.61301
1.50936 22.932899 193.005
1.6458 22.961901 193.24899
1.7825 22.989901 193.485
1.91965 23.0193 193.73199
2.0567801 23.044701 193.946
2.19398 23.0676 194.13901
2.4689801 23.1117 194.50999
2.6062901 23.1285 194.651
2.7436299 23.143999 194.782
2.88182 23.1649 194.957
3.01985 23.182501 195.106
3.1580801 23.200199 195.255
3.29635 23.216801 195.394
3.43467 23.2323 195.52499
3.5734501 23.249599 195.67
3.7133501 23.272699 195.86501
3.85168 23.284599 195.965
3.99154 23.3048 196.13499
4.1314902 23.323999 196.297
4.2709599 23.339399 196.42599
4.4127102 23.3659 196.649
4.5539598 23.388201 196.83701
4.6971002 23.418699 197.09399
4.8410401 23.451401 197.368
4.9846201 23.480499 197.61301
5.1280398 23.507299 197.839
5.2733998 23.541401 198.12601
5.4278798 23.6134 198.73199
5.8091698 24.0464 202.37601
5.9649801 24.106701 202.884
6.1154299 24.143 203.19
-14.0018 24.0949 201.60201
-13.8686 24.1073 201.70599
-13.7286 24.108101 201.713
-13.5835 24.0998 201.644
-13.4409 24.0958 201.61
-13.3054 24.1045 201.683
-13.1733 24.119801 201.811
-13.0395 24.132099 201.914
-12.897 24.1285 201.884
-12.7508 24.1178 201.79401
-12.6104 24.118 201.79601
-12.4742 24.1262 201.86501
-12.3306 24.120199 201.814
-12.1918 24.1236 201.843
-12.0527 24.1264 201.866
-11.9137 24.1294 201.892
-7.1111598 22.292101 186.519
-6.9802999 22.2889 186.492
-6.7191401 22.283899 186.45
-6.58921 22.2834 186.446
-6.4591298 22.282499 186.438
-6.3291202 22.2817 186.43201
-6.1992102 22.2812 186.42799
-6.0689402 22.279499 186.41299
-5.9389801 22.278799 186.407
-5.8091998 22.2787 186.407
-5.5497298 22.278999 186.409
-5.4194899 22.277 186.39301
-5.29001 22.2782 186.40199
-5.1605601 22.279499 186.414
-5.0306001 22.2787 186.40601
-4.9012198 22.2805 186.42101
-4.7719998 22.2831 186.44299
-4.6427598 22.2857 186.465
-4.5130701 22.286301 186.47
-4.38411 22.290701 186.507
-4.2547698 22.2932 186.528
-4.1258702 22.298401 186.571
-3.99699 22.3039 186.618
-3.86801 22.309401 186.66299
-3.73844 22.3116 186.68201
-3.6088099 22.313601 186.69901
-3.47911 22.315399 186.714
-3.3503799 22.3237 186.783
-3.2215099 22.331699 186.85001
-3.0924201 22.3389 186.91
-2.96295 22.3437 186.951
-2.83371 22.350901 187.00999
-2.7043099 22.357401 187.065
-2.57496 22.365 187.129
-2.4454999 22.3724 187.19099
-2.31552 22.375601 187.217
-2.1865499 22.3895 187.334
-2.05667 22.395399 187.383
-1.92702 22.4046 187.46001
-1.7975399 22.4174 187.567
-1.66733 22.4223 187.608
-1.53782 22.4382 187.741
-1.4081399 22.4545 187.87801
-1.27828 22.4708 188.01401
-1.14824 22.487301 188.15199
-1.0176001 22.4949 188.215
-0.88744801 22.5172 188.40199
-0.75714302 22.5425 188.614
-0.62636101 22.5613 188.771
-0.36422101 22.6038 189.127
-0.232903 22.637199 189.40601
0.030885199 22.6943 189.884
0.42932901 22.7941 190.71899
0.56250203 22.810499 190.856
0.69596201 22.83 191.019
0.83016503 22.863701 191.302
0.96520901 22.9081 191.673
1.10021 22.940701 191.946
1.2349499 22.9615 192.12
1.3701299 22.985701 192.32201
1.50708 23.032499 192.713
1.64381 23.0686 193.01601
1.7801 23.0935 193.224
1.9174401 23.1276 193.509
2.05461 23.155399 193.742
2.1919 23.180799 193.955
2.32937 23.2052 194.159
2.4670999 23.229401 194.36099
2.60514 23.253901 194.56599
2.74259 23.2708 194.70799
2.8809199 23.293301 194.896
3.01913 23.312901 195.06
3.1575401 23.332199 195.222
3.29601 23.350401 195.37399
3.4344001 23.366699 195.509
3.5734601 23.386 195.67101
3.7134099 23.4095 195.868
3.85163 23.420799 195.963
3.9915099 23.4412 196.133
4.1314602 23.460501 196.295
4.2715902 23.4797 196.455
4.4137301 23.508301 196.69501
4.5542698 23.526899 196.851
4.6965499 23.553301 197.071
4.8406401 23.586901 197.35201
4.98382 23.6143 197.58099
5.1265898 23.638399 197.783
5.2720599 23.673401 198.076
5.4247098 23.7379 198.616
5.8027701 24.1607 202.153
5.9661298 24.252701 202.923
6.11588 24.286301 203.20399
-13.8669 24.244801 201.68201
-13.7252 24.242599 201.66299
-13.5802 24.234301 201.59399
-13.4367 24.228701 201.547
-13.3018 24.2384 201.629
-13.1723 24.258499 201.79601
-13.0393 24.272499 201.912
-12.8959 24.267 201.867
-12.7497 24.256201 201.776
-12.6075 24.253 201.75
-12.4721 24.2628 201.83099
-12.3318 24.2631 201.834
-12.1918 24.2642 201.843
-12.0516 24.2647 201.847
-11.9108 24.264099 201.842
-11.7663 24.256001 201.77499
-11.6305 24.2658 201.856
-11.4926 24.2712 201.901
-6.84759 22.4093 186.41299
-6.7171898 22.407301 186.396
-6.5870099 22.4058 186.384
-6.4569802 22.4049 186.37601
-6.3271399 22.404499 186.373
-6.1970301 22.4032 186.362
-6.0664802 22.4002 186.33701
-5.9363599 22.398701 186.325
-5.8063402 22.397499 186.315
-5.67661 22.3974 186.314
-5.5472202 22.398701 186.32401
-5.4170599 22.396799 186.30901
-5.2873402 22.3967 186.308
-5.15734 22.395399 186.297
-5.0272999 22.3939 186.284
-4.8979101 22.395201 186.295
-4.3817201 22.4083 186.40401
-4.2525601 22.411501 186.431
-3.8651199 22.4226 186.52299
-3.73543 22.423599 186.53101
-3.60607 22.4266 186.55701
-3.4769399 22.4314 186.597
-3.34778 22.436399 186.638
-3.21877 22.442801 186.69099
-3.0898199 22.4501 186.752
-2.96065 22.456499 186.80499
-2.8312099 22.4613 186.845
-2.7019899 22.468399 186.905
-2.5727999 22.4764 186.97099
-2.4433899 22.4834 187.02901
-2.31356 22.487 187.05901
-2.1844201 22.4981 187.151
-2.0547199 22.504499 187.205
-1.79571 22.525101 187.37601
-1.66587 22.533199 187.444
-1.53605 22.5431 187.526
-1.40652 22.559299 187.661
-1.27684 22.5763 187.802
-1.14702 22.5945 187.953
-1.01644 22.6003 188.002
-0.756221 22.646299 188.384
-0.49465999 22.6796 188.661
-0.36369899 22.702999 188.856
-0.232509 22.7306 189.08501
-0.10104 22.7673 189.39101
0.030841401 22.794201 189.61501
0.162999 22.8162 189.798
0.561836 22.9163 190.63
0.829135 22.968399 191.064
0.96373898 23.0065 191.381
1.0987099 23.0431 191.685
1.2332799 23.0641 191.86
1.36817 23.086599 192.047
1.5044399 23.1262 192.37601
1.64188 23.1758 192.789
1.77808 23.201799 193.005
1.9148099 23.230499 193.244
2.05232 23.264299 193.52499
2.1898799 23.294399 193.776
2.3275199 23.322001 194.005
2.4651799 23.3466 194.21001
2.60355 23.375099 194.44701
2.7411699 23.3943 194.60699
2.8794601 23.4172 194.797
3.0178399 23.438801 194.976
3.2949901 23.4792 195.313
3.43364 23.497601 195.466
3.5727301 23.5175 195.631
3.71292 23.542801 195.842
3.8514199 23.556101 195.952
3.9911699 23.5758 196.116
4.1315699 23.5979 196.3
4.2716699 23.617001 196.459
4.4136801 23.645 196.692
4.55442 23.664801 196.85699
4.6965098 23.6903 197.069
4.8401599 23.722 197.332
4.9830499 23.748301 197.55099
5.12609 23.7738 197.76401
5.2701302 23.802601 198.00301
5.4218998 23.863899 198.513
5.7964702 24.275101 201.93401
5.9667301 24.3965 202.94299
6.1143298 24.4217 203.153
-13.8646 24.3813 201.64799
-13.7235 24.3799 201.63699
-13.5777 24.370199 201.55701
-13.4335 24.363199 201.49899
-13.2987 24.373199 201.582
-13.1711 24.3967 201.776
-13.039 24.412399 201.90601
-12.8936 24.4032 201.83
-12.7467 24.391001 201.729
-12.6038 24.3864 201.69099
-12.4678 24.395 201.76199
-12.3325 24.405199 201.84599
-12.1949 24.4109 201.894
-12.0539 24.410101 201.88699
-11.9111 24.4053 201.847
-11.7685 24.400999 201.812
-11.6333 24.412201 201.90401
-11.4949 24.4167 201.942
-11.3601 24.429199 202.045
-11.2161 24.421801 201.98399
-6.7153101 22.5308 186.34399
-6.5850701 22.528999 186.32899
-6.4548898 22.527399 186.31599
-6.32477 22.5259 186.30299
-6.1947198 22.524599 186.293
-6.0644498 22.522499 186.27499
-5.9339299 22.5193 186.248
-5.8037801 22.517401 186.233
-5.67417 22.5175 186.23399
-5.5446 22.517799 186.23599
-5.4145699 22.516199 186.22301
-5.2850499 22.516701 186.22701
-5.1552 22.5158 186.22
-5.0252099 22.5142 186.207
-4.8954401 22.513599 186.201
-4.7659101 22.514 186.205
-4.6367102 22.5161 186.222
-4.50735 22.5175 186.23399
-4.3790302 22.5243 186.28999
-4.2498398 22.527 186.312
-4.1205101 22.528999 186.32899
-3.99143 22.5326 186.35899
-3.86216 22.535299 186.381
-3.73298 22.5387 186.409
-3.6038401 22.542601 186.442
-3.4747901 22.547501 186.48199
-3.3455501 22.551399 186.51401
-3.2165799 22.557501 186.565
-3.08761 22.5641 186.619
-2.9584999 22.5702 186.67
-2.8292 22.575399 186.713
-2.5704899 22.586399 186.804
-2.4412799 22.5942 186.868
-2.31165 22.5986 186.905
-2.18244 22.608 186.98199
-2.0530901 22.617001 187.05701
-1.92311 22.619801 187.08
-1.79386 22.6322 187.18201
-1.66424 22.6416 187.25999
-1.40514 22.667801 187.47701
-1.27544 22.682199 187.59599
-1.1459301 22.7036 187.77299
-1.01553 22.710899 187.83299
-0.88524997 22.7232 187.935
-0.62485498 22.7693 188.317
-0.49407601 22.784 188.438
-0.36321801 22.8043 188.606
-0.232196 22.831499 188.83099
-0.100873 22.8615 189.07899
0.16276801 22.915899 189.52901
0.29506999 22.944 189.761
0.56108201 23.018101 190.37399
0.69432902 23.041901 190.571
0.96240801 23.107901 191.117
1.09733 23.1474 191.44299
1.23174 23.1688 191.621
1.36656 23.1929 191.82001
1.50218 23.2251 192.086
1.63964 23.2782 192.526
1.77616 23.3109 192.79601
1.91224 23.3337 192.98399
2.04972 23.3694 193.28
2.32587 23.4405 193.867
2.4628899 23.459999 194.02901
2.6012199 23.4895 194.27299
2.7395401 23.5159 194.491
2.87784 23.5396 194.688
3.01595 23.559799 194.854
3.15453 23.581699 195.036
3.2934699 23.604401 195.22301
3.4323599 23.624901 195.39301
3.7117801 23.672001 195.782
3.8510001 23.690001 195.931
3.9907999 23.710199 196.09801
4.1315498 23.734501 196.299
4.2717099 23.754 196.46001
4.4133902 23.7805 196.67999
4.5544 23.801901 196.856
4.6967402 23.828699 197.07899
4.8404298 23.8608 197.34399
4.98315 23.8864 197.55499
5.1261001 23.911699 197.76401
5.4204102 23.9956 198.459
5.5714402 24.0511 198.918
5.96241 24.52 202.79601
6.1136799 24.5606 203.131
6.26408 24.5959 203.423
-13.5748 24.5054 201.51401
-13.4308 24.498699 201.459
-13.2966 24.509701 201.55
-13.1694 24.5341 201.75
-13.0373 24.5499 201.88
-12.8913 24.5394 201.79401
-12.7423 24.5231 201.659
-12.6006 24.5205 201.638
-12.4641 24.5282 201.701
-12.3349 24.550501 201.88499
-12.1977 24.557301 201.94099
-12.0545 24.5518 201.896
-11.9102 24.544201 201.83299
-11.769 24.542601 201.82001
-11.6349 24.5562 201.93201
-11.4954 24.558599 201.952
-11.3567 24.5627 201.985
-11.2166 24.5637 201.993
-10.9274 24.545799 201.847
-6.5830798 22.652 186.27299
-6.4527001 22.6495 186.252
-6.1928701 22.6476 186.237
-6.0623698 22.6444 186.211
-5.9319401 22.641399 186.186
-5.8020401 22.6402 186.177
-5.6721201 22.639 186.166
-5.5424099 22.638599 186.16299
-5.4124398 22.636999 186.14999
-5.2824302 22.635201 186.13499
-5.1525998 22.6341 186.12601
-5.0230298 22.6341 186.12601
-4.8933001 22.6334 186.12
-4.7636499 22.632999 186.117
-4.63416 22.6334 186.12
-4.5050802 22.635799 186.14
-4.3764601 22.6408 186.181
-4.24719 22.642599 186.196
-4.1178899 22.6444 186.21001
-3.98892 22.6481 186.241
-3.8596001 22.65 186.257
-3.7305701 22.6539 186.289
-3.6015899 22.6583 186.325
-3.47223 22.660601 186.34399
-3.34284 22.662901 186.36301
-3.2139399 22.6688 186.411
-3.0851901 22.6763 186.47301
-2.95627 22.6831 186.52901
-2.82688 22.686899 186.56
-2.6974499 22.690599 186.591
-2.5680699 22.695101 186.62801
-2.4389601 22.7027 186.69
-2.3095 22.707701 186.731
-2.1805401 22.718399 186.819
-1.79223 22.742001 187.013
-1.66281 22.752501 187.10001
-1.5328799 22.7572 187.138
-1.40372 22.775299 187.287
-1.1447999 22.811899 187.588
-1.01469 22.822701 187.677
-0.88440502 22.8323 187.756
-0.75435799 22.8522 187.92
-0.62408501 22.872299 188.08501
-0.36276901 22.907301 188.373
-0.100725 22.959299 188.80099
0.030745801 22.9869 189.02699
0.162497 23.009501 189.213
0.294561 23.0364 189.43401
0.69347799 23.146299 190.338
0.82689399 23.171801 190.548
0.96091598 23.205 190.82001
1.09582 23.2488 191.181
1.23011 23.2714 191.366
1.36471 23.295 191.561
1.5000499 23.3258 191.814
1.637 23.374599 192.215
1.77404 23.4172 192.56599
1.9099801 23.440399 192.756
2.04656 23.4678 192.98199
2.18434 23.504801 193.286
2.3231001 23.5474 193.636
2.4605999 23.573299 193.849
2.59781 23.5938 194.01801
2.7367499 23.6273 194.293
2.8754101 23.6553 194.52299
3.15306 23.706499 194.94501
3.29182 23.7285 195.12601
3.4307101 23.749599 195.299
3.5701799 23.773001 195.491
3.7103701 23.799299 195.70799
3.8501301 23.820999 195.88699
3.9905 23.844999 196.084
4.1311998 23.8692 196.283
4.2713699 23.889 196.44501
4.4134002 23.9175 196.67999
4.5545998 23.940001 196.86501
4.6968498 23.9666 197.08299
4.8399901 23.996 197.326
4.98313 24.023899 197.554
5.1256299 24.047199 197.746
5.4187198 24.126301 198.397
5.5692601 24.1803 198.84
5.7432499 24.3309 200.07899
5.9556398 24.633301 202.56599
6.1119199 24.695 203.073
6.2646599 24.739901 203.442
-13.4273 24.632401 201.405
-13.2933 24.6439 201.49899
-13.1666 24.6695 201.709
-12.889 24.675699 201.759
-12.7377 24.6546 201.586
-12.5952 24.650499 201.55299
-12.4624 24.6653 201.674
-12.3326 24.686501 201.84801
-12.197 24.696501 201.929
-12.0534 24.6903 201.87801
-11.9086 24.681299 201.80499
-11.7675 24.680099 201.795
-11.6361 24.6994 201.953
-11.4972 24.7031 201.983
-11.3571 24.704201 201.992
-11.2159 24.7029 201.98199
-11.072 24.695601 201.92101
-10.9287 24.6894 201.871
-10.7846 24.681101 201.80299
-10.6435 24.6798 201.793
-6.32057 22.7703 186.17999
-6.19028 22.767799 186.159
-6.06007 22.765499 186.14
-5.9296799 22.7624 186.11501
-5.79987 22.7614 186.10699
