ply
format ascii 1.0
comment PCL generated
element vertex 1702
property float x
property float y
property float z
element camera 0
property float view_px
property float view_py
property float view_pz
property float x_axisx
property float x_axisy
property float x_axisz
property float y_axisx
property float y_axisy
property float y_axisz
property float z_axisx
property float z_axisy
property float z_axisz
property float focal
property float scalex
property float scaley
property float centerx
property float centery
property int viewportx
property int viewporty
property float k1
property float k2
end_header
-9.8099203 5.10391 186.336
-9.7754898 5.1044002 186.353
-9.7392101 5.10392 186.336
-9.7030602 5.1034999 186.32001
-9.6675997 5.1034398 186.319
-9.6342697 5.1045198 186.358
-9.6034698 5.1069398 186.446
-9.5692997 5.1075802 186.47
-9.5339203 5.1075802 186.47
-9.5027905 5.10987 186.55299
-9.4685402 5.1104898 186.576
-9.4035997 5.1136799 186.692
-9.36765 5.11339 186.68201
-9.3359203 5.1154099 186.755
-9.3030396 5.1168199 186.80701
-9.2687502 5.1174598 186.83
-9.2352505 5.1185298 186.869
-9.2034903 5.1205902 186.94501
-9.17206 5.1228499 187.02699
-9.1424799 5.1261601 187.14799
-9.1078501 5.1266599 187.166
-9.0728998 5.1269798 187.17799
-8.7163696 5.2110901 190.248
-8.6802597 5.2110801 190.248
-8.6380997 5.2074299 190.11501
-8.6014204 5.2070599 190.101
-8.5694904 5.2095699 190.19299
-8.5285196 5.2065902 190.084
-8.4937096 5.2073698 190.11301
-8.4591799 5.2083101 190.147
-8.4245396 5.2092099 190.17999
-8.3849602 5.2070298 190.10001
-8.3515701 5.2087102 190.162
-8.3168201 5.2095399 190.192
-8.2816401 5.2101102 190.213
-8.2472095 5.2111602 190.25101
-7.8141999 5.2112799 190.255
-7.67242 5.2130499 190.32001
-7.6407299 5.2160802 190.431
-7.5995798 5.2126298 190.30499
-7.56253 5.2119899 190.28101
-7.5275898 5.21279 190.311
-7.4918599 5.2130599 190.32001
-7.18151 5.2237201 190.71001
-7.1438198 5.22262 190.66901
-7.1044598 5.2202802 190.584
-6.8578701 5.2252698 190.76601
-6.8192601 5.2234201 190.698
-6.7814898 5.2221899 190.65401
-6.7498698 5.2257199 190.783
-6.71387 5.2258801 190.78799
-25.072901 5.2031398 188.649
-25.042601 5.2042899 188.69099
-24.997499 5.2023401 188.62
-24.9697 5.20402 188.681
-24.9356 5.20438 188.694
-24.663 5.1997399 188.52499
-24.6325 5.20086 188.56599
-24.6014 5.2018299 188.60201
-24.559099 5.20046 188.552
-24.516001 5.1989102 188.496
-24.492001 5.2013998 188.586
-24.458 5.2017999 188.60001
-24.4195 5.2012 188.57899
-24.3403 5.1995702 188.52
-24.303699 5.1993999 188.513
-24.2635 5.1984601 188.479
-24.2311 5.1991601 188.505
-24.1991 5.1999898 188.535
-24.1719 5.2018299 188.601
-24.1327 5.2010798 188.57401
-24.0954 5.2007599 188.562
-24.0613 5.2011299 188.576
-24.019501 5.19981 188.528
-23.983299 5.1997299 188.52499
-23.952101 5.2007298 188.561
-23.9119 5.19977 188.52699
-23.8659 5.1975398 188.446
-23.825001 5.1964102 188.405
-23.799601 5.1986699 188.487
-23.7586 5.1975298 188.44501
-23.7225 5.1974401 188.442
-23.559799 5.19311 188.285
-23.5294 5.1942801 188.328
-23.2924 5.1733999 187.571
-23.3556 5.1953802 188.367
-23.3127 5.1937699 188.30901
-20.9555 5.2028999 188.64
-20.839399 5.2007098 188.561
-20.757299 5.1980801 188.465
-20.7404 5.2028198 188.63699
-20.7013 5.2019701 188.606
-20.5744 5.1970501 188.42799
-20.5408 5.1975999 188.448
-20.505501 5.1977201 188.452
-20.461399 5.19559 188.375
-20.428801 5.1963801 188.40401
-20.393 5.1963701 188.403
-20.147699 5.19765 188.45
-20.1087 5.1968198 188.42
-20.076799 5.1978202 188.45599
-20.0341 5.1960001 188.39
-19.990499 5.1939602 188.31599
-19.9464 5.1918001 188.23801
-19.7376 5.1932302 188.28999
-19.699499 5.1926098 188.267
-19.6612 5.1919298 188.242
-19.5739 5.1972098 188.43401
-19.524401 5.1935501 188.30099
-19.448 5.1922102 188.25301
-19.409901 5.1915998 188.23
-19.3647 5.1986198 188.485
-19.3099 5.1935101 188.3
-19.266001 5.1912999 188.22
-19.2279 5.19067 188.19701
-19.202499 5.19344 188.297
-19.1646 5.1928701 188.276
-19.126499 5.1922202 188.25301
-19.0853 5.1907301 188.19901
-19.0483 5.1903701 188.186
-19.014 5.1907501 188.2
-18.9736 5.1894698 188.153
-18.9389 5.1897402 188.16299
-18.915001 5.1929798 188.28101
-18.8792 5.1929598 188.28
-18.840599 5.1921802 188.25101
-18.7992 5.1906099 188.19501
-18.761801 5.1901398 188.177
-18.7286 5.1908302 188.203
-18.6866 5.1890898 188.13901
-18.6457 5.1876402 188.08701
-18.614599 5.18892 188.133
-18.584801 5.1905599 188.19299
-18.549999 5.1908202 188.202
-18.5116 5.1900702 188.175
-18.467199 5.1876202 188.086
-18.368099 5.1898799 188.168
-18.0902 5.19209 188.248
-17.9732 5.1995802 188.52
-17.8932 5.1971202 188.431
-17.5947 5.1829 187.91499
-17.5418 5.1778202 187.731
-16.621201 5.11377 185.408
-16.580999 5.1122098 185.35201
-16.5392 5.1101699 185.278
-16.496099 5.1076999 185.189
-16.451599 5.1048102 185.084
-16.4179 5.1052399 185.099
-16.384501 5.1057801 185.119
-16.309401 5.10426 185.064
-16.2675 5.10215 184.987
-16.2292 5.10115 184.951
-16.191401 5.1002698 184.91901
-16.1581 5.1008601 184.94
-16.120199 5.0999599 184.908
-16.083 5.0992799 184.883
-16.0427 5.09764 184.82401
-16.007401 5.0975499 184.821
-15.9346 5.0967002 184.78999
-15.8937 5.09482 184.72099
-15.8525 5.0928502 184.64999
-15.8109 5.0907302 184.573
-15.7801 5.0921102 184.623
-15.7441 5.0917802 184.61099
-15.7053 5.09058 184.56799
-15.6649 5.08882 184.504
-15.6321 5.08954 184.53
-15.5549 5.0871902 184.44501
-15.5146 5.0854702 184.383
-15.4742 5.0836802 184.317
-15.4369 5.0829201 184.28999
-15.4016 5.0828099 184.286
-15.3649 5.0822201 184.265
-15.3292 5.0819898 184.256
-15.2965 5.0827398 184.284
-15.2606 5.0824399 184.27299
-15.223 5.0815601 184.241
-15.1848 5.0804501 184.201
-15.1478 5.0797601 184.17599
-15.1143 5.0802498 184.19299
-15.0772 5.0795398 184.16701
-15.0421 5.0794702 184.16499
-15.0103 5.0805402 184.20399
-14.9738 5.0800099 184.185
-14.9393 5.0801702 184.19
-14.9046 5.0802498 184.19299
-14.8668 5.0792999 184.159
-14.8296 5.0784998 184.13
-14.7911 5.0773001 184.086
-14.7534 5.0763402 184.05099
-14.7186 5.0763898 184.05299
-14.6831 5.07619 184.04601
-14.6479 5.0760698 184.04201
-14.6164 5.0772901 184.086
-14.5828 5.0777402 184.10201
-14.5483 5.0778899 184.108
-14.5145 5.07828 184.12199
-14.4815 5.0789499 184.146
-14.4437 5.07797 184.11099
-14.4082 5.0777502 184.103
-14.3709 5.07693 184.073
-14.3357 5.0768099 184.06799
-14.2274 5.0755601 184.02299
-14.1918 5.0753198 184.015
-14.1589 5.0760498 184.041
-14.0907 5.0766401 184.062
-14.0556 5.07656 184.06
-13.9531 5.0773802 184.089
-13.852 5.0787401 184.13901
-13.8157 5.0782399 184.12
-13.7765 5.0766802 184.064
-13.7409 5.0764298 184.05499
-13.7043 5.07581 184.032
-13.6716 5.0766501 184.063
-13.6414 5.0784001 184.12601
-13.6106 5.0799499 184.18201
-13.5715 5.0783901 184.12601
-13.5076 5.0806398 184.207
-13.4424 5.0823998 184.271
-13.4022 5.08042 184.19901
-13.3657 5.0798302 184.17799
-13.3377 5.08249 184.274
-13.3011 5.0818501 184.25101
-13.2636 5.0808702 184.216
-13.2381 5.0845299 184.34801
-13.2035 5.08465 184.353
-13.1697 5.0850902 184.369
-13.1428 5.0882301 184.48199
-13.1052 5.0872502 184.44701
-13.0716 5.08776 184.466
-13.0345 5.0869598 184.436
-13.0003 5.0872698 184.448
-12.9651 5.0871801 184.44501
-12.9385 5.0904899 184.564
-12.9062 5.0915799 184.604
-12.8698 5.0910301 184.584
-12.8034 5.0924802 184.63699
-12.7683 5.0924602 184.636
-12.7432 5.0964298 184.78
-12.708 5.0963502 184.77699
-12.6762 5.0976601 184.82401
-12.6409 5.0975699 184.821
-12.6069 5.0980101 184.83701
-12.5737 5.0987701 184.86501
-12.5403 5.0994701 184.89
-12.5047 5.0992498 184.882
-12.4696 5.0992298 184.881
-12.4407 5.1017799 184.974
-12.4029 5.1006498 184.933
-12.3701 5.1015902 184.967
-12.3359 5.1019902 184.98199
-12.304 5.1033001 185.02901
-12.2735 5.1052399 185.099
-12.2384 5.1052198 185.09801
-12.2044 5.1057 185.116
-12.1748 5.1079898 185.19901
-12.142 5.1090002 185.23599
-12.1022 5.1070299 185.164
-11.7559 5.10922 185.244
-11.7253 5.1112099 185.31599
-11.689 5.1107101 185.297
-11.6525 5.1101398 185.27699
-11.6162 5.1096201 185.258
-11.5824 5.11023 185.28
-11.552 5.1122999 185.355
-11.517 5.11238 185.358
-11.4812 5.1121202 185.349
-11.4444 5.1114001 185.323
-11.4103 5.1118498 185.339
-11.3728 5.1107898 185.30099
-11.3376 5.1107898 185.3
-11.3032 5.1111398 185.313
-11.2661 5.11026 185.28101
-11.2277 5.1087899 185.228
-11.1943 5.10956 185.256
-11.1639 5.1117401 185.33501
-11.134 5.1141601 185.423
-11.0956 5.11269 185.369
-11.0603 5.1126199 185.367
-11.0229 5.1115999 185.33
-10.9877 5.1115899 185.32899
-10.9583 5.1142502 185.42599
-10.9208 5.1132102 185.388
-10.8845 5.1126599 185.368
-10.8521 5.1139598 185.41499
-10.8189 5.1148901 185.44901
-10.7858 5.1159101 185.48599
-10.7507 5.1159601 185.48801
-10.7152 5.1157899 185.48199
-10.6815 5.1164899 185.507
-10.6474 5.1170201 185.526
-10.6159 5.1188102 185.591
-10.5814 5.1191401 185.603
-10.5436 5.1179099 185.55901
-10.5119 5.1196399 185.62199
-10.4818 5.1221399 185.71201
-10.4462 5.1219602 185.705
-10.4116 5.1222401 185.716
-10.3798 5.12393 185.77699
-10.3457 5.1245298 185.799
-10.3134 5.1259999 185.85201
-10.2793 5.1265998 185.87399
-10.2441 5.1266198 185.87399
-10.1765 5.1280799 185.927
-10.1422 5.1285701 185.94501
-10.1073 5.1287799 185.953
-10.0742 5.1298699 185.992
-10.0411 5.13099 186.033
-10.009 5.1326399 186.093
-9.9402304 5.1336002 186.12801
-9.9054098 5.1338601 186.13699
-9.8749199 5.1363702 186.228
-9.8414497 5.1373401 186.263
-9.8093596 5.13905 186.325
-9.7388 5.1391301 186.328
-9.70226 5.1385002 186.30499
-9.6680298 5.1390901 186.327
-9.6335602 5.1395602 186.34399
-9.5991802 5.14009 186.36301
-9.5665398 5.1415501 186.416
-9.5327597 5.1424098 186.44701
-9.5 5.1438298 186.498
-9.4676905 5.1455002 186.55901
-9.4380999 5.1486602 186.674
-9.4038496 5.1493101 186.69701
-9.3680201 5.1490898 186.689
-9.3362503 5.1511002 186.76199
-9.3032303 5.1524401 186.811
-9.2685003 5.1528401 186.825
-9.2350903 5.1539698 186.866
-9.2056599 5.1573501 186.989
-9.1756601 5.16043 187.10001
-9.1417503 5.1613302 187.133
-9.1064701 5.1614599 187.138
-8.7507296 5.2462201 190.211
-8.7157297 5.24687 190.23399
-8.6382303 5.24365 190.118
-8.6018696 5.2434702 190.11099
-8.5667696 5.2440701 190.133
-8.4580698 5.2437801 190.12199
-8.42278 5.2442698 190.14
-8.3855696 5.2435598 190.114
-8.3522596 5.2452898 190.177
-8.31567 5.2449698 190.166
-8.2789001 5.2445402 190.14999
-8.24545 5.2462101 190.21001
-7.6696801 5.2473698 190.252
-7.6350198 5.2483501 190.28799
-7.5991402 5.2485099 190.29401
-7.56213 5.24788 190.271
-7.5272799 5.2487602 190.30299
-7.2807298 5.2532401 190.465
-7.2453899 5.2538199 190.48599
-7.2105598 5.2547798 190.521
-7.17518 5.2553401 190.541
-7.1409898 5.2567902 190.59399
-7.1047602 5.2567401 190.592
-7.0659599 5.2547798 190.521
-7.0274501 5.2530098 190.457
-6.9956999 5.25631 190.576
-6.8520999 5.2571101 190.605
-6.81884 5.2593498 190.687
-6.7874298 5.2630501 190.821
-6.7570601 5.2676001 190.98599
-6.6065202 5.2631402 190.82401
-6.5669298 5.2604399 190.726
-6.5313301 5.26091 190.744
-25.043301 5.2403002 188.69501
-25.002701 5.2392998 188.659
-24.938499 5.24087 188.716
-24.8869 5.2375302 188.59599
-24.858101 5.2390099 188.649
-24.7717 5.2358799 188.536
-24.734301 5.2355199 188.52299
-24.6931 5.2343798 188.48199
-24.669001 5.2368498 188.571
-24.6409 5.2384901 188.63
-24.6021 5.2378402 188.60699
-24.565201 5.2376099 188.599
-24.493401 5.2375598 188.597
-24.4631 5.23873 188.63901
-24.4289 5.2390699 188.651
-24.386499 5.2376499 188.60001
-24.312599 5.2371502 188.582
-24.2694 5.2355599 188.52499
-24.233101 5.2354498 188.521
-24.2019 5.2364402 188.556
-24.1661 5.2364202 188.556
-24.1341 5.2372398 188.58501
-24.0968 5.2369199 188.57401
-24.068001 5.23843 188.62801
-24.0214 5.2360702 188.543
-23.979799 5.2347999 188.49699
-23.9473 5.2355199 188.52299
-23.9118 5.23558 188.52499
-23.8685 5.2339401 188.466
-23.808001 5.2363501 188.55299
-23.7677 5.2353601 188.51801
-23.714701 5.2315602 188.381
-23.67 5.2295799 188.30901
-23.634199 5.2295699 188.30901
-23.596399 5.2291002 188.29201
-23.559 5.2287302 188.27901
-23.4893 5.2291098 188.293
-23.4622 5.23104 188.362
-23.438499 5.2337298 188.459
-23.414801 5.2364402 188.556
-23.343901 5.2365699 188.561
-23.303499 5.2355499 188.524
-23.259199 5.2336302 188.455
-23.2202 5.2329001 188.429
-23.193899 5.2350202 188.505
-23.070499 5.23138 188.37399
-23.035801 5.2316098 188.383
-21.002701 5.2416 188.742
-20.9599 5.2398701 188.67999
-20.9083 5.2359099 188.537
-20.870701 5.2354498 188.521
-20.841299 5.23704 188.578
-20.795601 5.23454 188.48801
-20.747999 5.2315698 188.381
-20.707399 5.23034 188.33701
-20.5777 5.2336998 188.45799
-20.546 5.2347398 188.495
-20.5091 5.2344398 188.485
-20.4631 5.2318401 188.39101
-20.421 5.2301998 188.332
-20.2087 5.2307601 188.35201
-20.159901 5.2273598 188.23
-20.141899 5.2319698 188.395
-20.101601 5.2307801 188.353
-20.0648 5.2305102 188.343
-20.031799 5.2312198 188.369
-19.949301 5.2283301 188.265
-19.896099 5.23313 188.437
-19.853201 5.2312398 188.369
-19.808201 5.2287998 188.28101
-19.7743 5.2293 188.299
-19.7404 5.2297602 188.31599
-19.703699 5.2295198 188.30701
-19.4939 5.2307501 188.35201
-19.447201 5.2277899 188.245
-19.2307 5.22721 188.224
-19.1996 5.2284598 188.269
-19.159599 5.2273002 188.22701
-19.119499 5.2261 188.18401
-19.0741 5.2234502 188.089
-19.0396 5.2237701 188.10001
-19.0058 5.2242799 188.119
-18.8382 5.2273102 188.228
-18.795099 5.2252498 188.153
-18.755899 5.2242799 188.119
-18.7285 5.2265902 188.202
-18.6868 5.2249098 188.14101
-18.6429 5.22262 188.05901
-18.6056 5.2221599 188.04201
-18.581699 5.2254701 188.161
-18.552401 5.2272701 188.226
-18.5182 5.2277198 188.242
-18.383101 5.2299199 188.32201
-18.300301 5.2266698 188.205
-18.09 5.2278299 188.246
-18.055799 5.22826 188.26199
-18.0119 5.23627 188.55
-17.979 5.2371001 188.58
-17.947201 5.2382598 188.62199
-16.673201 5.1542201 185.59599
-16.5809 5.1474299 185.351
-16.539801 5.1455898 185.285
-16.4981 5.1435399 185.211
-16.4538 5.1406798 185.108
-16.418699 5.1406999 185.10899
-16.387199 5.14183 185.14999
-16.3517 5.1417198 185.146
-16.313 5.1406002 185.106
-16.2721 5.1387701 185.039
-16.233299 5.1375899 184.99699
-16.159901 5.13659 184.961
-16.122801 5.1359301 184.937
-16.084299 5.13485 184.89799
-16.044001 5.1331902 184.839
-16.009501 5.1333599 184.845
-15.975 5.1335602 184.85201
-15.9362 5.13235 184.808
-15.8954 5.1305099 184.742
-15.8551 5.1288099 184.681
-15.8142 5.1268902 184.612
-15.7838 5.1284199 184.66701
-15.7448 5.1271 184.619
-15.7082 5.1266198 184.60201
-15.6714 5.12603 184.58099
-15.6364 5.12603 184.58099
-15.5976 5.1247802 184.536
-15.5535 5.1217999 184.42799
-15.5137 5.1202202 184.371
-15.4748 5.1189198 184.325
-15.4431 5.1199899 184.36301
-15.4086 5.1201601 184.37
-15.3676 5.1181502 184.297
-15.331 5.11761 184.278
-15.298 5.1182799 184.302
-15.2612 5.1176701 184.28
-15.2248 5.1171899 184.26199
-15.1876 5.1164098 184.23399
-15.1496 5.1154099 184.198
-15.1164 5.1159801 184.21899
-15.0808 5.1157799 184.21201
-15.0453 5.1155901 184.205
-15.0108 5.1157398 184.21001
-14.9737 5.1149902 184.183
-14.9369 5.1143899 184.161
-14.902 5.1143999 184.162
-14.8658 5.1139698 184.146
-14.8284 5.1131001 184.11501
-14.7914 5.11238 184.089
-14.7553 5.11199 184.075
-14.7212 5.1122599 184.08501
-14.6843 5.1115799 184.061
-14.6459 5.1103802 184.017
-14.6145 5.1115999 184.061
-14.5848 5.11344 184.127
-14.55 5.1134701 184.129
-14.5178 5.11445 184.164
-14.4888 5.11656 184.24001
-14.3761 5.11377 184.13901
-14.3386 5.1128602 184.10699
-14.3004 5.1117001 184.065
-14.2636 5.1110101 184.03999
-14.2244 5.1094599 183.98399
-14.1938 5.1110201 184.03999
-14.126 5.1117601 184.067
-14.0567 5.1119499 184.07401
-14.0273 5.1139598 184.146
-13.9907 5.1133599 184.12399
-13.9236 5.1143899 184.162
-13.8891 5.1145401 184.16701
-13.8104 5.11129 184.05
-13.7717 5.1099 184
-13.738 5.1103301 184.015
-13.7031 5.1103501 184.01601
-13.6715 5.1115699 184.06
-13.6388 5.1124401 184.091
-13.6099 5.1146698 184.172
-13.5726 5.1138101 184.14101
-13.5445 5.1163998 184.23399
-13.5098 5.1164899 184.237
-13.4732 5.11585 184.214
-13.4388 5.1160498 184.222
-13.3382 5.1177001 184.28101
-13.3032 5.1176801 184.28
-13.2715 5.1189399 184.325
-13.2387 5.1197701 184.356
-13.2001 5.1184001 184.306
-13.1698 5.1202102 184.371
-13.1432 5.1234798 184.489
-13.1099 5.1241202 184.51199
-13.077 5.12498 184.543
-13.0393 5.12393 184.505
-13.0033 5.1235099 184.49001
-12.9668 5.12292 184.46899
-12.9372 5.1250701 184.54601
-12.9047 5.12606 184.582
-12.8685 5.1255999 184.565
-12.8306 5.1244402 184.52299
-12.805 5.1282101 184.659
-12.7711 5.1286702 184.67599
-12.7444 5.13202 184.79601
-12.7094 5.1320701 184.798
-12.6746 5.1321602 184.80099
-12.6395 5.1321602 184.802
-12.6082 5.1336999 184.85699
-12.5751 5.13449 184.88499
-12.5418 5.1352401 184.912
-12.4715 5.13516 184.909
-12.4433 5.138 185.01199
-12.4041 5.1363001 184.951
-12.371 5.1371398 184.981
-12.3367 5.1374602 184.992
-12.3015 5.1374402 184.991
-12.2734 5.1403599 185.097
-12.239 5.1406898 185.10899
-12.2014 5.1396298 185.071
-12.1749 5.14324 185.201
-12.1441 5.1450901 185.267
-12.1041 5.1430602 185.194
-12.0712 5.1440201 185.228
-11.7259 5.1466799 185.32401
-11.6879 5.1454401 185.28
-11.6512 5.1447501 185.255
-11.6169 5.1451502 185.269
-11.5822 5.14535 185.27699
-11.5524 5.1477499 185.36301
-11.5158 5.14709 185.339
-11.4804 5.1469898 185.33501
-11.4447 5.14676 185.327
-11.4102 5.1470699 185.338
-11.371 5.1452398 185.27299
-11.337 5.14573 185.28999
-11.3039 5.1466899 185.325
-11.2699 5.1472001 185.343
-11.2281 5.1441998 185.235
-11.1898 5.1427202 185.18201
-11.1649 5.14745 185.35201
-11.1312 5.14815 185.377
-11.0934 5.1469102 185.33299
-11.0571 5.14639 185.314
-11.0215 5.1461802 185.306
-10.9863 5.1461401 185.30499
-10.9549 5.1479101 185.368
-10.918 5.14709 185.339
-10.88 5.1457901 185.29201
-10.8504 5.1484299 185.38699
-10.8168 5.1491699 185.414
-10.7823 5.1494799 185.425
-10.7478 5.1498098 185.437
-10.7137 5.1503501 185.45599
-10.6816 5.1518002 185.509
-10.6466 5.1518998 185.51199
-10.6155 5.1539001 185.584
-10.5819 5.1546998 185.61301
-10.5442 5.1534801 185.569
-10.5098 5.1538901 185.584
-10.4772 5.1551499 185.629
-10.4415 5.1549501 185.62199
-10.408 5.1557999 185.653
-10.378 5.1584001 185.746
-10.3454 5.1596799 185.793
-10.3143 5.1617799 185.868
-10.2453 5.16254 185.895
-10.2077 5.1613798 185.854
-10.1732 5.1617498 185.867
-10.1412 5.1634498 185.92799
-10.0673 5.1617198 185.866
-10.0376 5.1645598 185.968
-10.0089 5.1679702 186.091
-9.97682 5.1696501 186.151
-9.9390402 5.1683698 186.105
-9.9057598 5.1694298 186.144
-9.87428 5.1714401 186.216
-9.8385401 5.1712298 186.20799
-9.8083296 5.1739302 186.306
-9.7774696 5.1763 186.39101
-9.7398396 5.1750998 186.34801
-9.70228 5.1739302 186.306
-9.6679401 5.1744699 186.325
-9.6334295 5.1749201 186.341
-9.5985003 5.1751499 186.35001
-9.5657997 5.17659 186.401
-9.5346403 5.1788802 186.48399
-9.5003099 5.17945 186.504
-9.46702 5.1806002 186.54601
-9.4385595 5.1844101 186.683
-9.4047499 5.1852999 186.715
-9.3692703 5.1852698 186.714
-9.3348103 5.1858101 186.733
-9.3008099 5.1866102 186.76199
-9.2676096 5.18786 186.80701
-9.2339897 5.18888 186.84399
-9.2070904 5.1937099 187.01801
-9.1764002 5.1964302 187.116
-9.1397495 5.1957698 187.092
-9.1043301 5.1958199 187.09399
-8.7094803 5.2792501 190.09801
-8.6714001 5.2780299 190.054
-8.5574999 5.2744999 189.927
-8.5282001 5.2786698 190.077
-8.4926901 5.2790198 190.09
-8.4569902 5.2792501 190.09801
-8.4215899 5.2796698 190.11301
-8.3845396 5.2790599 190.091
-8.3506098 5.2804098 190.14
-8.3130598 5.27947 190.106
-8.2773199 5.2796798 190.11301
-8.24189 5.2800899 190.12801
-7.6691999 5.2832098 190.24001
-7.6317 5.2822399 190.20599
-7.59973 5.2851 190.30901
-7.56148 5.2836099 190.255
-7.5264301 5.2843399 190.28101
-7.2746301 5.2850099 190.306
-7.2445898 5.2894502 190.465
-7.20925 5.29003 190.48599
-7.1753201 5.2916598 190.545
-7.14083 5.2929001 190.59
-7.1066699 5.2943902 190.64301
-7.0701699 5.2941499 190.634
-7.0281801 5.2897701 190.47701
-6.8199902 5.2965002 190.71899
-6.7876 5.2994599 190.826
-6.7560802 5.3031402 190.95799
-6.6038899 5.2973199 190.74899
-6.5629101 5.2934599 190.61
-6.5293002 5.2955298 190.68401
-25.378401 5.2788601 188.791
-25.057699 5.2792201 188.80499
-24.816401 5.2736101 188.604
-24.7708 5.2715201 188.52901
-24.732901 5.27107 188.513
-24.686899 5.2688999 188.435
-24.662901 5.2714 188.52499
-24.6425 5.2746801 188.642
-24.6075 5.2748599 188.64799
-24.5714 5.2747998 188.646
-24.502399 5.2753501 188.666
-24.466999 5.2754502 188.67
-24.432899 5.2758002 188.68201
-24.3897 5.2742 188.625
-24.344801 5.2722301 188.55499
-24.317301 5.2740202 188.618
-24.281799 5.2740998 188.621
-24.225401 5.2774 188.739
-24.193899 5.2783399 188.77299
-24.1499 5.2765398 188.709
-24.059999 5.2725501 188.56599
-24.0222 5.27209 188.549
-23.995899 5.2741799 188.62399
-23.959299 5.2739902 188.617
-23.915899 5.2723298 188.558
-23.8862 5.2736702 188.606
-23.8486 5.2732701 188.591
-23.8076 5.27212 188.55
-23.7659 5.2707901 188.50301
-23.725201 5.2697001 188.464
-23.682199 5.2680898 188.40601
-23.643499 5.2674398 188.383
-23.610399 5.2680202 188.40401
-23.594299 5.2724199 188.561
-23.5499 5.2704802 188.492
-23.507601 5.2690201 188.44
-23.471001 5.2688298 188.433
-23.440901 5.2701001 188.478
-23.3589 5.2677398 188.394
-23.3267 5.2685299 188.422
-23.298901 5.27034 188.487
-23.2621 5.2701001 188.478
-23.2202 5.2687201 188.429
-23.0702 5.2671199 188.371
-23.027201 5.26546 188.312
-22.8654 5.26934 188.451
-22.691401 5.2704601 188.491
-20.989 5.2740402 188.619
-20.9526 5.27389 188.614
-20.9063 5.2712598 188.52
-20.866899 5.2703199 188.48599
-20.8403 5.2726498 188.569
-20.7519 5.2683702 188.416
-20.5783 5.2697001 188.464
-20.553499 5.2725 188.564
-20.5173 5.2723899 188.56
-20.4718 5.2698998 188.47099
-20.4266 5.2674599 188.384
-20.2064 5.2659602 188.33
-20.1618 5.26366 188.248
-20.135 5.2659798 188.33099
-20.098301 5.2657299 188.32201
-20.0588 5.26474 188.287
-19.997101 5.2673001 188.37801
-19.9515 5.2646899 188.285
-19.9305 5.2686 188.425
-19.893499 5.26826 188.412
-19.8592 5.2686501 188.42599
-19.8223 5.2683501 188.416
-19.7861 5.26823 188.411
-19.744101 5.2665601 188.35201
-19.7027 5.2650499 188.298
-19.238899 5.2652302 188.304
-19.202101 5.2649398 188.29401
-19.158001 5.26262 188.211
-19.1164 5.2610302 188.15401
-19.0748 5.2593799 188.095
-18.8372 5.2628198 188.218
-18.793699 5.2606301 188.14
-18.754299 5.2595801 188.10201
-18.732901 5.2635899 188.245
-18.690201 5.2616301 188.175
-18.6443 5.25875 188.07201
-18.604401 5.2575598 188.03
-18.579201 5.26054 188.136
-18.5499 5.2623601 188.201
-18.517799 5.2633801 188.23801
-18.3027 5.2631402 188.229
-18.0998 5.26647 188.349
-18.0616 5.2657399 188.32201
-18.011801 5.2720799 188.549
-16.493799 5.1774201 185.16299
-16.4534 5.1757598 185.104
-16.4158 5.1749701 185.076
-16.3902 5.17799 185.18401
-16.3573 5.1786799 185.209
-16.317499 5.1772099 185.15601
-16.277901 5.1757798 185.105
-16.239201 5.1746602 185.065
-16.2008 5.1735902 185.02699
-16.1623 5.1725202 184.98801
-16.125299 5.1718898 184.966
-16.0874 5.17102 184.935
-16.0481 5.1696601 184.886
-16.0135 5.1698098 184.892
-15.9758 5.1689601 184.86099
-15.9364 5.1675401 184.81
-15.8978 5.16642 184.77
-15.8577 5.1647601 184.711
-15.8209 5.1641998 184.69099
-15.7858 5.1641698 184.69
-15.7448 5.16222 184.62
-15.7093 5.1620698 184.61501
-15.6727 5.16154 184.59599
-15.634 5.1603198 184.552
-15.5966 5.1595602 184.52499
-15.5539 5.1569901 184.433
-15.5159 5.1559901 184.397
-15.4802 5.1557498 184.38901
-15.4424 5.15481 184.355
-15.4085 5.15518 184.368
-15.3691 5.1536999 184.315
-15.332 5.1529999 184.28999
-15.2983 5.15342 184.30499
-15.2629 5.1532798 184.3
-15.2262 5.1526799 184.27901
-15.189 5.1519198 184.252
-15.1547 5.1521602 184.25999
-15.1204 5.15237 184.26801
-15.0834 5.15167 184.243
-15.0479 5.1515002 184.237
-15.0124 5.1513 184.229
-14.976 5.1508198 184.21201
-14.9404 5.1505699 184.203
-14.9055 5.1506 184.20399
-14.8708 5.1506801 184.207
-14.834 5.1500502 184.185
-14.7943 5.1484098 184.12601
-14.7562 5.1472902 184.086
-14.7206 5.1470499 184.078
-14.6834 5.1462698 184.05
-14.6492 5.1465201 184.058
-14.6208 5.1488099 184.14
-14.5866 5.1490898 184.14999
-14.5534 5.1497002 184.172
-14.5237 5.1515598 184.239
-14.4897 5.1518898 184.25101
-14.4528 5.1512098 184.226
-14.4168 5.1508298 184.213
-14.3767 5.1489701 184.146
-14.3366 5.14715 184.08099
-14.3012 5.1469598 184.07401
-14.2673 5.1473398 184.088
-14.2272 5.1454501 184.02
-14.2009 5.1485801 184.132
-14.1674 5.1490998 184.151
-14.1307 5.1484799 184.129
-14.0585 5.1476002 184.097
-14.0281 5.1493001 184.158
-13.9941 5.1496201 184.16901
-13.9567 5.1487398 184.138
-13.9216 5.1486602 184.13499
-13.8867 5.1486902 184.136
-13.8488 5.1475801 184.097
-13.8129 5.1472101 184.08299
-13.7761 5.1465001 184.058
-13.7407 5.1463299 184.052
-13.7101 5.1479602 184.11
-13.6733 5.1472502 184.08501
-13.6398 5.1477799 184.104
-13.6104 5.1498899 184.179
-13.5757 5.1499901 184.183
-13.546 5.1519799 184.254
-13.5132 5.1528201 184.284
-13.4759 5.1518998 184.25101
-13.3666 5.1501999 184.19
-13.3395 5.1532402 184.299
-13.3065 5.1539898 184.326
-13.2759 5.1557002 184.38699
-13.2415 5.1559501 184.396
-13.2012 5.1538401 184.32001
-13.148 5.16043 184.556
-13.1145 5.1610298 184.577
-13.0798 5.16116 184.582
-13.0414 5.1598301 184.534
-13.0036 5.1587 184.494
-12.9673 5.1582098 184.47701
-12.9368 5.1599998 184.541
-12.9032 5.1605701 184.561
-12.8671 5.16013 184.545
-12.8354 5.1614599 184.593
-12.8055 5.1635098 184.666
-12.7761 5.1658201 184.74899
-12.7467 5.1680999 184.83
-12.7129 5.1686101 184.84801
-12.6755 5.1676698 184.815
-12.6395 5.1673102 184.802
-12.608 5.1687298 184.853
-12.5749 5.16958 184.883
-12.5405 5.1698499 184.89301
-12.5051 5.1697001 184.88699
-12.4717 5.1704102 184.91299
-12.4411 5.1722598 184.979
-12.3673 5.1707602 184.925
-12.3371 5.1728301 184.99899
-12.3042 5.1737399 185.032
-12.2725 5.1751699 185.08299
-12.2391 5.17589 185.10899
-12.2045 5.1761098 185.117
-12.1751 5.1785798 185.205
-12.1427 5.1797299 185.246
-12.1054 5.1788201 185.214
-12.0291 5.1761999 185.12
-11.8307 5.1816201 185.314
-11.7906 5.17945 185.23599
-11.7586 5.18083 185.286
-11.7245 5.1813202 185.30299
-11.6875 5.1805 185.274
-11.65 5.17944 185.23599
-11.6186 5.1811199 185.29601
-11.5837 5.1812401 185.3
-11.5495 5.1816802 185.31599
-11.5125 5.18083 185.286
-11.4771 5.1807199 185.282
-11.4411 5.1803498 185.269
-11.4074 5.1810198 185.29201
-11.3703 5.18014 185.261
-11.34 5.1823702 185.34
-11.3031 5.1815701 185.312
-11.2708 5.1828599 185.358
-11.2293 5.1799302 185.25301
-11.1888 5.1774802 185.166
-11.1604 5.1805801 185.27699
-11.1248 5.1803999 185.27
-11.0937 5.1823001 185.338
-11.0555 5.18085 185.286
-11.0169 5.1792498 185.229
-10.985 5.1807699 185.284
-10.9576 5.1844501 185.41499
-10.9192 5.1829 185.36
-10.8809 5.1814399 185.30701
-10.849 5.1829901 185.36301
-10.8143 5.1832299 185.371
-10.779 5.1831598 185.369
-10.7467 5.1845298 185.418
-10.7116 5.1845698 185.41901
-10.6786 5.1856599 185.45799
-10.6475 5.1876101 185.528
-10.6156 5.18922 185.586
-10.5786 5.1883402 185.554
-10.5417 5.1875501 185.526
-10.5072 5.1878901 185.53799
-10.4734 5.1886001 185.563
-10.4407 5.1898298 185.60699
-10.408 5.1910901 185.65199
-10.3763 5.1928501 185.716
-10.3431 5.19385 185.75101
-10.3093 5.1946201 185.77901
-10.2776 5.1963701 185.841
-10.2435 5.197 185.864
-10.2073 5.1965098 185.84599
-10.1716 5.19629 185.839
-10.1375 5.1968899 185.86
-10.1027 5.1971102 185.868
-10.0685 5.19765 185.88699
-10.0378 5.2000198 185.972
-10.0061 5.2019 186.039
-9.9740496 5.2035899 186.10001
-9.9386902 5.2035699 186.099
-9.8740597 5.2067299 186.21201
-9.8393297 5.2070498 186.22301
-9.8084803 5.2094302 186.308
-9.7747402 5.21029 186.339
-9.7390203 5.2100902 186.332
-9.7028799 5.2096701 186.317
-9.6673498 5.2095699 186.314
-9.6336203 5.2104502 186.345
-9.5987797 5.2107401 186.355
-9.5640497 5.2110801 186.367
-9.5323601 5.2130799 186.439
-9.4986 5.2139702 186.47099
-9.4636898 5.2142301 186.48
-9.4347496 5.2177901 186.608
-9.4028196 5.2197199 186.677
-9.3683996 5.2202802 186.69701
-9.3346395 5.22122 186.73
-9.3000202 5.2216702 186.746
-9.2671404 5.2231102 186.798
-9.2328796 5.2237802 186.82201
-9.2046299 5.22787 186.968
-9.1764297 5.2320099 187.116
-9.1379004 5.2302799 187.054
-9.0996103 5.2286701 186.99699
-8.7077303 5.3143201 190.06
-8.5563803 5.3099198 189.90199
-8.5270796 5.3141098 190.052
-8.4910002 5.3140998 190.052
-8.4556503 5.3145499 190.06799
-8.4181204 5.3136201 190.035
-8.3807602 5.3127999 190.005
-8.3509197 5.31675 190.147
-8.31707 5.3181801 190.198
-8.2797003 5.3173599 190.168
-8.2445297 5.3179498 190.189
-8.2063503 5.3165898 190.14101
-8.1687202 5.3155799 190.105
-8.1316605 5.31493 190.08099
-7.66711 5.3179202 190.189
-7.6319799 5.3185902 190.21201
-7.6017399 5.32269 190.35899
-7.5643702 5.3218098 190.328
-7.5282998 5.3218398 190.32899
-7.4897199 5.3200898 190.26601
-7.4534202 5.3199401 190.261
-7.4249501 5.3254199 190.457
-7.3817902 5.3203602 190.276
-7.3470802 5.3213701 190.312
-7.31388 5.3234901 190.38699
-7.28158 5.3262901 190.48801
-7.2497101 5.3294201 190.60001
-7.2123599 5.3285499 190.569
-7.1754398 5.32798 190.548
-7.13871 5.3275599 190.533
-7.1039 5.3285599 190.569
-7.0289102 5.32654 190.49699
-6.81532 5.3291001 190.588
-6.7874198 5.3355999 190.821
-6.7570701 5.34023 190.98599
-6.6828299 5.33882 190.936
-6.64327 5.3361402 190.84
-6.60463 5.3341799 190.77
-6.5644698 5.3309598 190.655
-6.5279799 5.3306999 190.646
-25.372999 5.3136101 188.75101
-25.058901 5.3153701 188.814
-24.777 5.3086901 188.576
-24.7313 5.30656 188.50101
-24.683201 5.3039298 188.407
-24.6119 5.3116698 188.68201
-24.497999 5.3102698 188.632
-24.461 5.31002 188.623
-24.437099 5.3125901 188.715
-24.3577 5.3108902 188.65401
-24.3169 5.3098001 188.616
-24.2782 5.3091698 188.593
-24.2701 5.3152299 188.808
-24.2332 5.31499 188.8
-24.194099 5.31428 188.77499
-24.143 5.3109198 188.655
-24.1064 5.31072 188.64799
-24.0646 5.3094001 188.601
-24.0266 5.3089199 188.584
-23.962999 5.3106799 188.647
-23.9179 5.30863 188.57401
-23.897499 5.3120298 188.69501
-23.8521 5.3098998 188.619
-23.8018 5.3066702 188.504
-23.7742 5.3084898 188.569
-23.7342 5.3075399 188.535
-23.6609 5.3071499 188.522
-23.525999 5.30901 188.58701
-23.4338 5.3043299 188.42101
-23.3615 5.3041401 188.41499
-23.326099 5.3042202 188.41701
-23.2864 5.3033299 188.386
-23.254601 5.3042302 188.418
-23.2649 5.3311701 189.375
-23.0357 5.3032198 188.382
-23.0527 5.3153801 188.814
-22.8612 5.3042002 188.416
-22.822599 5.3035302 188.39301
-22.801701 5.3069901 188.51601
-22.7572 5.3049598 188.444
-22.725201 5.30583 188.47501
-22.691 5.30619 188.487
-22.6443 5.3036299 188.396
-22.6187 5.3060002 188.481
-22.5937 5.3085499 188.571
-20.984301 5.3087201 188.577
-20.944401 5.3076801 188.53999
-20.8992 5.3052902 188.455
-20.8571 5.3036699 188.39799
-20.819 5.3030701 188.37601
-20.785101 5.3035498 188.39301
-20.7556 5.30514 188.45
-20.7171 5.30443 188.425
-20.6819 5.3045702 188.42999
-20.642401 5.3036199 188.396
-20.6103 5.3045602 188.429
-20.5828 5.3066702 188.504
-20.547001 5.3066802 188.505
-20.5063 5.3053999 188.459
-20.427999 5.3036399 188.397
-20.2031 5.3009 188.3
-20.163099 5.2997799 188.25999
-20.142401 5.30374 188.39999
-20.108801 5.3043098 188.42
-20.0667 5.3026099 188.36
-20.0315 5.3027601 188.36501
-19.999001 5.3036199 188.396
-19.956301 5.3017702 188.33
-19.927401 5.3035898 188.395
-19.890301 5.3032398 188.383
-19.817499 5.3028798 188.37
-19.7882 5.3046198 188.43201
-19.7057 5.30165 188.326
-19.279301 5.30233 188.35001
-19.2384 5.3009 188.299
-19.1998 5.3000998 188.271
-19.158701 5.2986102 188.218
-18.840401 5.29948 188.24899
-18.8002 5.2982202 188.20399
-18.7661 5.2986798 188.22099
-18.736601 5.3004298 188.283
-18.696899 5.2993202 188.243
-18.6497 5.2960401 188.127
-18.607401 5.2941899 188.061
-18.5891 5.2991199 188.23599
-18.5494 5.2979898 188.196
-18.5161 5.2986698 188.22
-18.303301 5.2991199 188.23599
-18.2621 5.2975302 188.17999
-18.127701 5.2999902 188.267
-18.091101 5.2997298 188.258
-18.017799 5.29917 188.23801
-18.001101 5.30478 188.437
-16.496 5.2133198 185.188
-16.4568 5.2120299 185.14301
-16.393299 5.21417 185.21899
-16.3605 5.2149 185.245
-16.318399 5.2127099 185.16701
-16.2766 5.2105598 185.09
-16.2379 5.2094102 185.049
-16.2012 5.20891 185.032
-16.163799 5.2081599 185.005
-16.125299 5.2070799 184.967
-16.0909 5.2072902 184.974
-16.0497 5.2053099 184.90401
-16.0128 5.20473 184.883
-15.977 5.2044902 184.875
-15.9383 5.2033 184.83299
-15.9009 5.2025499 184.806
-15.8607 5.20085 184.745
-15.8246 5.2005301 184.73399
-15.7875 5.1998301 184.709
-15.7469 5.1979899 184.644
-15.7137 5.1986299 184.66701
-15.6776 5.1982598 184.653
-15.6338 5.1953702 184.55099
-15.5933 5.1935301 184.485
-15.5529 5.19173 184.42101
-15.5183 5.1918602 184.42599
-15.4827 5.1916399 184.418
-15.4402 5.1891198 184.32899
-15.4039 5.1886802 184.313
-15.3696 5.18892 184.32201
-15.3332 5.1884398 184.30499
-15.2987 5.18859 184.31
-15.2607 5.1875601 184.27299
-15.2235 5.18679 184.246
-15.1907 5.1875401 184.27299
-15.1603 5.1890802 184.327
-15.1227 5.1882 184.29601
-15.0847 5.18714 184.258
-15.0507 5.18748 184.271
-15.0143 5.1869998 184.25301
-14.9456 5.1873999 184.26801
-14.9072 5.1862302 184.226
-14.8698 5.1853499 184.19501
-14.8344 5.1851902 184.189
-14.7963 5.1841002 184.151
-14.7587 5.1831498 184.117
-14.7219 5.1824999 184.09399
-14.6846 5.1816802 184.064
-14.6505 5.1819701 184.075
-14.6207 5.1837902 184.13901
-14.5874 5.18437 184.16
-14.5546 5.1851401 184.187
-14.5215 5.1857901 184.21001
-14.4869 5.1859102 184.215
-14.4557 5.1872702 184.263
-14.4249 5.1887598 184.31599
-14.3434 5.1845798 184.168
-14.3064 5.1838298 184.14101
-14.2696 5.1831598 184.117
-14.1986 5.1827698 184.103
-14.1664 5.1837502 184.138
-14.132 5.1839499 184.145
-14.0953 5.18329 184.12199
-14.0632 5.18434 184.159
-14.0332 5.1861601 184.224
-13.9997 5.1866999 184.243
-13.9619 5.1856599 184.20599
-13.9251 5.1849799 184.18201
-13.8866 5.18364 184.134
-13.8186 5.18436 184.16
-13.7427 5.1820698 184.078
-13.6746 5.1827402 184.10201
-13.6409 5.1832299 184.12
-13.6118 5.1854501 184.198
-13.5772 5.1855602 184.202
-13.548 5.1877699 184.28101
-13.518 5.1897001 184.349
-13.4795 5.1883101 184.3
-13.4414 5.18713 184.258
-13.4085 5.1879301 184.287
-13.3734 5.18786 184.284
-13.3404 5.1886201 184.311
-13.3058 5.1887898 184.317
-13.2755 5.1905899 184.381
-13.2066 5.19104 184.397
-13.1795 5.19414 184.507
-13.1134 5.1956902 184.562
-13.0783 5.1956501 184.561
-13.0393 5.1940598 184.504
-13.0025 5.1933599 184.479
-12.9714 5.1949201 184.535
-12.9413 5.1968899 184.605
-12.9089 5.1979599 184.64301
-12.8724 5.19736 184.621
-12.8398 5.1983399 184.65601
-12.8075 5.19946 184.696
-12.7808 5.2028499 184.81599
-12.7475 5.2035699 184.842
-12.7119 5.2033401 184.834
-12.6764 5.2031698 184.828
-12.6429 5.2038398 184.851
-12.6096 5.2045298 184.87601
-12.5427 5.2059202 184.92599
-12.5086 5.2062998 184.939
-12.4727 5.2059999 184.92799
-12.4392 5.2066498 184.951
-12.4039 5.2065401 184.948
-12.3652 5.20505 184.894
-12.3367 5.20784 184.994
-12.3068 5.21 185.07001
-12.2721 5.2101998 185.078
-12.2387 5.2109098 185.103
-12.2098 5.2135901 185.198
-12.175 5.2137399 185.203
-12.1392 5.21346 185.19299
-11.8272 5.2153301 185.25999
-11.79 5.2144098 185.22701
-11.7242 5.2164302 185.299
-11.6889 5.2163401 185.29601
-11.6495 5.2144499 185.229
-11.62 5.217 185.319
-11.585 5.2170601 185.321
-11.5504 5.21732 185.33
-11.5121 5.2158899 185.28
-11.4766 5.2157502 185.27499
-11.4401 5.2151098 185.252
-11.4074 5.21626 185.293
-11.3688 5.2146902 185.237
-11.3322 5.2139902 185.21201
-11.2976 5.2142401 185.22099
-11.2677 5.21667 185.30701
-11.2298 5.2154002 185.26199
-11.191 5.2136798 185.201
-11.1577 5.21457 185.233
-11.1192 5.2129698 185.17599
-11.0878 5.2147298 185.239
-11.0517 5.2142801 185.22301
-11.0123 5.2122898 185.15199
-10.9765 5.2119799 185.14101
-10.9678 5.2245302 185.58701
-10.9219 5.21946 185.40601
-10.88 5.2162399 185.29201
-10.847 5.2172899 185.32899
-10.8124 5.2175498 185.339
-10.7801 5.2189002 185.38699
-10.7459 5.2193999 185.40401
-10.7103 5.2192101 185.39799
-10.6771 5.22017 185.43201
-10.6448 5.2216001 185.48199
-10.6109 5.2221999 185.504
-10.5759 5.2223101 185.508
-10.5425 5.2231998 185.539
-10.5082 5.22366 185.556
-10.4727 5.2234802 185.549
-10.4404 5.2249799 185.60201
-10.4085 5.2266402 185.662
-10.3752 5.2276201 185.696
-10.341 5.2281098 185.714
-10.31 5.2302799 185.791
-10.277 5.2314 185.83099
-10.2441 5.2326198 185.87399
-10.2105 5.2334599 185.90401
-10.1744 5.2330399 185.88901
-10.1402 5.2336102 185.909
-10.1056 5.2339301 185.92
-10.0698 5.2336998 185.912
-10.0355 5.23418 185.929
-10.0017 5.2349701 185.95799
-9.9746599 5.2392998 186.11099
-9.9401798 5.2397299 186.127
-9.9069099 5.2408199 186.16499
-9.8733797 5.2417698 186.19901
-9.8405895 5.2431202 186.24699
-9.8099298 5.2456198 186.336
-9.7745504 5.2456102 186.33501
-9.7376204 5.24476 186.30499
-9.7004499 5.2437801 186.27
-9.6648798 5.24366 186.26601
-9.6321297 5.24507 186.31599
-9.59758 5.2455101 186.332
-9.5617104 5.2452302 186.32201
-9.4958897 5.24792 186.418
-9.4642401 5.24999 186.491
-9.4019804 5.2547498 186.66
-9.3678303 5.2554598 186.685
-9.3358898 5.2574201 186.755
-9.29984 5.2570701 186.743
-9.2668104 5.25844 186.791
-9.2038603 5.26297 186.952
-9.17414 5.2662702 187.069
-9.13591 5.2646999 187.013
-9.0987997 5.2637601 186.98
-8.7087297 5.3510699 190.082
-8.5571804 5.3465199 189.92
-8.4910402 5.3502598 190.05299
-8.4555902 5.3506498 190.067
-8.3796997 5.3482499 189.981
-8.3484201 5.3512998 190.09
-8.3164902 5.35396 190.18401
-8.2794504 5.3533502 190.162
-8.24331 5.3533101 190.161
-8.1693401 5.3521299 190.119
-8.1339998 5.3526101 190.136
-7.8692598 5.3443198 189.842
-7.8442202 5.35182 190.108
-7.7100701 5.35886 190.358
-7.6703401 5.3563399 190.269
-7.6320601 5.3548102 190.214
-7.59935 5.3571901 190.299
-7.5650902 5.3585 190.34599
-7.5299902 5.35923 190.371
-7.49158 5.3575902 190.313
-7.4514499 5.3547001 190.211
-7.4233899 5.3604999 190.41701
-7.3820701 5.35674 190.283
-7.3473001 5.3577099 190.317
-7.31426 5.3599601 190.397
-7.2832899 5.36376 190.532
-7.2445598 5.3618498 190.464
-7.20753 5.3611798 190.44099
-7.1757202 5.3644199 190.556
-7.1370101 5.3625002 190.48801
-7.1001801 5.36199 190.46899
-7.06253 5.3608398 190.42799
-6.9202099 5.3625498 190.489
-6.8200102 5.36903 190.71899
-6.7884498 5.3726902 190.849
-6.7587399 5.3778601 191.033
-6.7183299 5.3745399 190.91499
-6.6830401 5.3752899 190.942
-6.6420202 5.3714199 190.804
-6.6047101 5.3705101 190.772
-6.56464 5.3673401 190.66
-5.90486 4.90906 174.38
-24.7409 5.34448 188.57401
-24.442801 5.34971 188.759
-24.4053 5.34934 188.746
-24.360201 5.3473001 188.674
-24.3118 5.3445301 188.576
-24.2735 5.3439798 188.556
-24.2672 5.3504801 188.786
-24.2262 5.3493299 188.745
-24.1926 5.3498201 188.76199
-24.141899 5.34653 188.646
-24.108801 5.3471198 188.66701
-24.065399 5.3454499 188.608
-24.023701 5.34412 188.561
-24.002399 5.3473501 188.675
-23.9174 5.3443499 188.57001
-23.878099 5.3435798 188.54201
-23.8428 5.3436799 188.54601
-23.7267 5.3417001 188.476
-23.704399 5.3447399 188.58299
-23.361401 5.3399501 188.414
-23.3328 5.3415799 188.472
-23.292 5.3404298 188.431
-23.252001 5.3394499 188.396
-23.052299 5.3428702 188.517
-22.8708 5.3422599 188.496
-22.822701 5.3393698 188.394
-22.792601 5.3406901 188.44
-22.780399 5.34624 188.636
-22.743299 5.3459201 188.625
-22.7094 5.3463602 188.64
-22.624001 5.3431101 188.52499
-22.467899 5.3400002 188.416
-22.450399 5.3443398 188.569
-22.3309 5.3414502 188.467
-22.319901 5.3473701 188.67599
-21.885099 5.3461099 188.631
-21.7782 5.34623 188.636
-21.2759 5.3459201 188.625
-21.1408 5.3389101 188.377
-21.1092 5.3399601 188.414
-20.868099 5.3422899 188.49699
-20.8118 5.3370399 188.311
-20.7869 5.3398199 188.41
-20.757401 5.3414302 188.466
-20.720699 5.3411999 188.45799
-20.679701 5.3398199 188.41
-20.6385 5.3384299 188.36
-20.607 5.33951 188.399
-20.5763 5.3408298 188.44501
-20.5448 5.3419499 188.485
-20.509399 5.34203 188.48801
-20.476 5.34266 188.50999
-20.4366 5.3417001 188.476
-20.400499 5.34162 188.47301
-20.2554 5.3410602 188.453
-20.203199 5.33674 188.30099
-20.1546 5.3428001 188.515
-20.120199 5.3431401 188.52699
-20.0832 5.3428302 188.51601
-20.0327 5.3389001 188.377
-20.007999 5.3418398 188.481
-19.971399 5.34164 188.474
-19.9303 5.3401999 188.423
-19.8936 5.3399301 188.41299
-19.855801 5.3393898 188.394
-19.812099 5.3372502 188.319
-19.776199 5.3372102 188.317
-19.7472 5.3390198 188.381
-19.704201 5.33706 188.312
-19.663099 5.3355899 188.25999
-19.634899 5.3376298 188.332
-19.535601 5.3397899 188.408
-19.280899 5.3385701 188.366
-19.242001 5.3376799 188.334
-19.203199 5.3368402 188.304
-19.1609 5.3350201 188.24001
-18.820499 5.3397799 188.408
-18.7726 5.3362999 188.285
-18.738501 5.3367801 188.302
-18.696501 5.33498 188.239
-18.6523 5.3325701 188.15401
-18.611401 5.33108 188.101
-18.575701 5.33108 188.101
-18.542 5.3316398 188.121
-18.504 5.3309898 188.09801
-18.296301 5.33287 188.164
-18.263901 5.3338299 188.198
-18.2234 5.3324099 188.14799
-18.185499 5.33179 188.12601
-18.1514 5.3322401 188.142
-18.127399 5.33567 188.263
-18.0921 5.3358102 188.26801
-18.057199 5.33606 188.27699
-18.0306 5.3387599 188.37199
-18.0002 5.3403301 188.42799
-17.9074 5.3446498 188.58
-17.8613 5.3415699 188.47099
-17.820499 5.3400602 188.418
-16.5522 5.2552099 185.424
-16.504999 5.2513599 185.28799
-16.4645 5.2496901 185.229
-16.4251 5.2483101 185.181
-16.392099 5.2490001 185.205
-16.3566 5.2488699 185.2
-16.316401 5.2472601 185.144
-16.274799 5.2451901 185.071
-16.2363 5.2440901 185.032
-16.2012 5.2440701 185.03101
-16.1626 5.2429399 184.991
-16.091999 5.2428198 184.987
-16.0509 5.24086 184.918
-16.012501 5.23979 184.88
-15.9772 5.2397199 184.87801
-15.94 5.2389898 184.85201
-15.9028 5.2383099 184.828
-15.8626 5.23663 184.76801
-15.8276 5.23665 184.769
-15.7895 5.23564 184.73399
-15.7493 5.2339201 184.673
-15.714 5.23384 184.67
-15.6816 5.2347102 184.701
-15.6395 5.2323399 184.617
-15.5988 5.2304301 184.55
-15.5572 5.22825 184.47301
-15.5205 5.2276502 184.452
-15.4852 5.22756 184.44901
-15.4496 5.2273698 184.442
-15.4137 5.2270598 184.431
-15.3759 5.22609 184.397
-15.3395 5.2255998 184.379
-15.2667 5.2246599 184.34599
-15.2312 5.2244701 184.339
-15.1992 5.2255001 184.37601
-15.1625 5.2248902 184.354
-15.1243 5.2238002 184.31599
-15.0832 5.2216501 184.24001
-15.0483 5.2216902 184.242
-15.0171 5.22299 184.287
-14.9834 5.2234402 184.30299
-14.9468 5.2228699 184.283
-14.908 5.2215099 184.235
-14.87 5.2204599 184.198
-14.8343 5.2202101 184.189
-14.7976 5.2195702 184.16701
-14.7607 5.2188702 184.142
-14.7235 5.21808 184.114
-14.6872 5.2175899 184.097
-14.6523 5.2176199 184.09801
-14.6186 5.21805 184.11301
-14.59 5.2203002 184.192
-14.5619 5.2227602 184.27901
-14.527 5.2227998 184.28
-14.4893 5.2218199 184.246
-14.4573 5.2228699 184.283
-14.4279 5.2248998 184.355
-14.3867 5.2226501 184.27499
-14.3067 5.2189598 184.145
-14.2705 5.2185001 184.129
-14.2325 5.21736 184.089
-14.1991 5.2179499 184.11
-14.1644 5.21803 184.112
-14.1324 5.2191 184.14999
-14.1011 5.22047 184.198
-14.0691 5.22157 184.237
-13.9999 5.2218299 184.246
-13.9612 5.2204299 184.19701
-13.9263 5.2204499 184.198
-13.8882 5.2192502 184.155
-13.8529 5.21911 184.14999
-13.8194 5.2196798 184.17
-13.7839 5.21946 184.16299
-13.7094 5.21771 184.101
-13.676 5.2182798 184.121
-13.6134 5.2210598 184.21899
-13.5765 5.2203302 184.194
-13.5509 5.2239099 184.32001
-13.4808 5.2238798 184.319
-13.4463 5.22404 184.32401
-13.4107 5.2237902 184.31599
-13.3748 5.2234302 184.30299
-13.3407 5.2237802 184.315
-13.311 5.2258501 184.388
-13.2788 5.2269702 184.42799
-13.2431 5.2266598 184.41701
-13.2083 5.2267399 184.42
-13.1796 5.22925 184.508
-13.149 5.2309899 184.57001
-13.1101 5.2294502 184.515
-13.0776 5.2304702 184.55099
-13.0394 5.2291698 184.505
-13.0075 5.2304502 184.55
-12.9756 5.2316699 184.59399
-12.9433 5.23281 184.634
-12.9111 5.2339201 184.673
-12.8753 5.2336502 184.66299
-12.8393 5.2332501 184.649
-12.8086 5.2350001 184.711
-12.7786 5.2370901 184.785
-12.7478 5.2388401 184.84599
-12.7137 5.2392402 184.86099
-12.6795 5.2396002 184.873
-12.6448 5.2397699 184.879
-12.6107 5.24014 184.892
-12.5459 5.2424102 184.972
-12.5122 5.24297 184.992
-12.4761 5.2425699 184.978
-12.444 5.2438202 185.022
-12.4102 5.24438 185.04201
-12.3738 5.2438402 185.02299
-12.3452 5.2466102 185.121
-12.309 5.24613 185.104
-12.274 5.2462001 185.106
-12.2404 5.24685 185.129
-12.2122 5.2498298 185.23399
-12.1784 5.2503901 185.254
-12.1432 5.2504001 185.254
-12.0156 5.2560802 185.455
-11.7934 5.2511601 185.28101
-11.754 5.2492299 185.213
-11.723 5.25109 185.27901
-11.6885 5.25139 185.289
-11.6512 5.2504201 185.255
-11.6214 5.25283 185.34
-11.5853 5.25244 185.326
-11.5507 5.2526698 185.33501
-11.5131 5.2515802 185.29601
-11.4803 5.2526598 185.334
-11.4417 5.25107 185.278
-11.4108 5.2530298 185.347
-11.3713 5.25102 185.276
-11.3316 5.24894 185.203
-11.295 5.24826 185.179
-11.2638 5.2500701 185.243
-11.2305 5.2509398 185.27299
-11.1976 5.2520299 185.312
-11.1587 5.2502298 185.248
-11.0831 5.2477298 185.16
-11.0481 5.2477899 185.162
-11.0112 5.2469501 185.133
-10.7825 5.2553201 185.42799
-10.7446 5.2539902 185.381
-10.6803 5.25701 185.48801
-10.647 5.2579098 185.519
-10.6112 5.2576399 185.50999
-10.5763 5.2577901 185.515
-10.5433 5.2588902 185.554
-10.5081 5.2588801 185.554
-10.4702 5.2575102 185.505
-10.4351 5.2575798 185.508
-10.4036 5.25946 185.57401
-10.3728 5.2616901 185.653
-10.341 5.2634201 185.714
-10.3089 5.2650499 185.771
-10.2741 5.2652702 185.77901
-10.2404 5.2660499 185.80701
-10.208 5.26753 185.85899
-10.1727 5.2674999 185.858
-10.1383 5.2679601 185.87399
-10.1043 5.2686501 185.89799
-10.0701 5.2691698 185.91701
-10.0026 5.2707701 185.97301
-9.9743004 5.2744899 186.104
-9.9389496 5.2744699 186.104
-9.90382 5.27457 186.10699
-9.8702698 5.2755098 186.14
-9.8385096 5.27742 186.20799
-9.8084202 5.2802401 186.30701
-9.7750702 5.2813201 186.345
-9.7369499 5.27982 186.293
-9.7002201 5.2790699 186.26601
-9.6658897 5.2796202 186.286
-9.6317701 5.2802901 186.30901
-9.5984402 5.2814102 186.34801
-9.5620699 5.2808499 186.32899
-9.5272703 5.2811499 186.339
-9.4947701 5.2827501 186.396
-9.4667597 5.28685 186.541
-9.4334002 5.2879901 186.58099
-9.4000196 5.2891302 186.621
-9.3334303 5.2915301 186.70599
-9.2965002 5.2906799 186.67599
-9.2656202 5.2932701 186.767
-9.2400703 5.2989402 186.967
-9.2049999 5.29917 186.97501
-9.1701403 5.29953 186.98801
-9.1370697 5.30092 187.037
-8.9728203 5.3941998 190.328
-8.7072496 5.3863001 190.049
-8.6684904 5.3846202 189.99001
-8.6308002 5.3835902 189.95399
-8.5950098 5.38375 189.96001
-8.5572205 5.3826499 189.92101
-8.5216799 5.3829598 189.93201
-8.4864998 5.3835101 189.951
-8.45121 5.3839898 189.968
-8.4172497 5.3853302 190.015
-8.3492804 5.388 190.10899
-8.3153296 5.38937 190.158
-8.2779503 5.3885298 190.12801
-8.2419004 5.3885398 190.129
-8.2019501 5.3860002 190.039
-8.1662302 5.38622 190.047
-8.1352196 5.3895602 190.16499
-8.0975399 5.3885002 190.127
-7.8738298 5.3835402 189.952
-7.8449302 5.3884401 190.125
-7.6690898 5.3916402 190.23801
-7.6377401 5.39499 190.356
-7.6082201 5.3996701 190.521
-7.5721002 5.3996902 190.522
-7.4490199 5.3891101 190.149
-7.4180298 5.3928099 190.27901
-7.3831601 5.3937101 190.311
-7.3467798 5.3935099 190.304
-7.3088002 5.3921299 190.255
-7.27528 5.3940401 190.323
-7.2386398 5.3936501 190.30901
-7.2058501 5.3961301 190.397
-7.1721401 5.3979502 190.461
-7.1349401 5.39715 190.43201
-7.1027498 5.4001498 190.53799
-6.81985 5.40516 190.715
-6.7848201 5.4060798 190.748
-6.7529101 5.4095101 190.869
-6.7125502 5.4061699 190.75101
-6.6809502 5.4098902 190.882
-6.63973 5.4058199 190.73801
-6.6002998 5.4031701 190.645
-6.56148 5.40099 190.56799
-6.5268602 5.4022698 190.61301
-24.7488 5.38205 188.634
-24.363501 5.3839102 188.69901
-24.320499 5.3823099 188.64301
-24.273399 5.3798099 188.556
-24.2453 5.3815198 188.616
-24.215599 5.3828802 188.66299
-24.1859 5.3842301 188.71001
-24.166 5.3877802 188.83501
-24.1194 5.3853598 188.75
-24.0734 5.38308 188.67
-24.0329 5.38205 188.634
-24.0068 5.3842101 188.71001
-23.959101 5.3815398 188.616
-23.914 5.3794498 188.543
-23.8288 5.3763599 188.435
-23.790899 5.3758798 188.418
-23.7542 5.37567 188.41
-23.7141 5.37467 188.37601
-23.687 5.3766398 188.44501
