ply
format ascii 1.0
comment PCL generated
element vertex 1727
property float x
property float y
property float z
element camera 0
property float view_px
property float view_py
property float view_pz
property float x_axisx
property float x_axisy
property float x_axisz
property float y_axisx
property float y_axisy
property float y_axisz
property float z_axisx
property float z_axisy
property float z_axisz
property float focal
property float scalex
property float scaley
property float centerx
property float centery
property int viewportx
property int viewporty
property float k1
property float k2
end_header
-20.7896 -1.50677 184.62399
-20.7509 -1.5065 184.591
-20.7166 -1.50655 184.59801
-20.683201 -1.50667 184.612
-20.6492 -1.50675 184.621
-20.612801 -1.50664 184.60899
-20.579599 -1.50678 184.625
-20.543699 -1.5067101 184.617
-20.511801 -1.50695 184.646
-20.474501 -1.50678 184.625
-20.4424 -1.507 184.65199
-20.3983 -1.50633 184.57001
-20.3671 -1.50661 184.604
-20.334499 -1.50679 184.627
-20.301901 -1.50697 184.649
-20.265301 -1.50685 184.634
-20.2297 -1.5068099 184.629
-20.198601 -1.5071 184.66499
-20.167801 -1.5074199 184.70399
-20.131701 -1.50734 184.694
-20.0947 -1.50719 184.67599
-20.0644 -1.50755 184.72
-20.026699 -1.50735 184.69501
-19.991501 -1.50734 184.694
-19.949699 -1.50683 184.632
-19.9076 -1.5063 184.56599
-19.8717 -1.50622 184.55701
-19.830799 -1.50578 184.50301
-19.793301 -1.50559 184.48
-19.759001 -1.50565 184.487
-19.723499 -1.50561 184.48199
-19.6894 -1.50568 184.491
-19.6521 -1.5055 184.46899
-19.617599 -1.50554 184.47301
-19.5846 -1.50569 184.492
-19.547199 -1.50551 184.47
-19.4757 -1.50539 184.45599
-19.436399 -1.50506 184.41499
-19.4 -1.50495 184.40199
-19.3599 -1.50455 184.353
-19.326 -1.50464 184.36301
-19.2936 -1.50484 184.388
-19.2519 -1.50432 184.32401
-19.2125 -1.50397 184.28101
-19.178801 -1.50407 184.293
-19.1504 -1.50458 184.356
-19.1136 -1.5044399 184.339
-19.075701 -1.50421 184.311
-19.0376 -1.50396 184.28
-19.003201 -1.50401 184.286
-18.971901 -1.5043 184.32201
-18.935801 -1.50421 184.311
-18.9009 -1.50422 184.312
-18.8643 -1.50409 184.29601
-18.829599 -1.5041 184.298
-18.7983 -1.5044 184.33299
-18.7635 -1.50442 184.336
-18.7299 -1.5045201 184.349
-18.694401 -1.50448 184.34399
-18.659599 -1.5045 184.34599
-18.6266 -1.50465 184.36501
-18.591101 -1.50462 184.36099
-18.558399 -1.5048 184.383
-18.5285 -1.50521 184.43401
-18.4921 -1.5051 184.42
-18.449499 -1.50448 184.343
-18.4067 -1.50384 184.265
-18.349501 -1.50488 184.39301
-18.315001 -1.50492 184.39799
-18.2798 -1.50491 184.396
-18.246401 -1.50504 184.412
-18.213499 -1.50521 184.433
-18.179001 -1.50525 184.438
-18.1506 -1.5058 184.505
-18.1138 -1.50565 184.487
-18.076799 -1.5054801 184.467
-18.0422 -1.50552 184.47099
-18.002701 -1.5051399 184.425
-17.964199 -1.50484 184.388
-17.934099 -1.50525 184.439
-17.8976 -1.5051301 184.424
-17.862101 -1.50509 184.41901
-17.7934 -1.5052 184.43201
-17.771 -1.5062701 184.563
-17.733999 -1.50609 184.541
-17.692801 -1.5055701 184.478
-17.6696 -1.50658 184.601
-17.637501 -1.50683 184.631
-17.5996 -1.50658 184.601
-17.5651 -1.50662 184.606
-17.543699 -1.5078 184.75
-17.509001 -1.50783 184.754
-17.478399 -1.5082099 184.8
-17.445 -1.50836 184.819
-17.409 -1.50828 184.80901
-17.372801 -1.50817 184.79601
-17.316999 -1.5094301 184.95
-17.2845 -1.50965 184.978
-17.252399 -1.50991 185.009
-17.18 -1.50972 184.98599
-17.1378 -1.5090899 184.909
-17.1089 -1.50964 184.976
-17.0746 -1.50971 184.98399
-17.0357 -1.50937 184.94299
-16.923901 -1.5088 184.873
-16.8906 -1.50895 184.892
-16.8554 -1.50894 184.89
-16.607401 -1.50872 184.86301
-16.573601 -1.50883 184.877
-16.5359 -1.5086 184.849
-16.426001 -1.50817 184.79601
-16.3958 -1.50862 184.85001
-16.363501 -1.50888 184.882
-16.3307 -1.5090801 184.907
-16.298 -1.5093 184.93401
-16.2635 -1.50936 184.942
-16.230101 -1.50951 184.96001
-16.191299 -1.5091701 184.918
-16.157499 -1.50929 184.93401
-16.132999 -1.51028 185.054
-16.065701 -1.51056 185.089
-16.031099 -1.5106 185.09399
-15.9937 -1.51039 185.067
-15.9618 -1.5107 185.106
-15.9327 -1.51127 185.17599
-15.9016 -1.51165 185.22301
-15.8502 -1.51345 185.44299
-15.8213 -1.51405 185.517
-15.7984 -1.51524 185.662
-15.7751 -1.51639 185.80299
-15.762 -1.51852 186.064
-15.678 -1.51722 185.90401
-15.6369 -1.51666 185.836
-15.603 -1.51678 185.851
-15.5614 -1.51617 185.77699
-15.4929 -1.51636 185.8
-15.4597 -1.51657 185.825
-15.4234 -1.5164599 185.812
-15.3871 -1.51636 185.799
-15.3471 -1.5159 185.743
-15.3057 -1.51528 185.668
-15.2695 -1.51519 185.65601
-15.2377 -1.51553 185.69701
-15.203 -1.5155801 185.70399
-15.1659 -1.5154001 185.68201
-15.1333 -1.51565 185.713
-15.1004 -1.5159 185.743
-15.0645 -1.51583 185.735
-15.0283 -1.51573 185.722
-14.9907 -1.5154901 185.69299
-14.954 -1.51535 185.675
-14.9216 -1.51563 185.71001
-14.8868 -1.5156699 185.715
-14.8085 -1.51487 185.617
-14.7716 -1.5147099 185.597
-14.741 -1.51518 185.655
-14.7054 -1.51513 185.649
-14.6706 -1.51518 185.655
-14.6309 -1.51472 185.59801
-14.5941 -1.51456 185.578
-14.5622 -1.5149 185.62
-14.5234 -1.51452 185.57401
-14.4888 -1.51459 185.58299
-14.457 -1.51495 185.62601
-14.4201 -1.51478 185.605
-14.3793 -1.51419 185.533
-14.3417 -1.51393 185.50101
-14.3066 -1.51394 185.50301
-14.2724 -1.51404 185.515
-14.235 -1.51381 185.487
-14.1992 -1.51375 185.479
-14.1644 -1.51379 185.485
-14.1245 -1.51329 185.423
-14.0964 -1.51404 185.51601
-14.0603 -1.51395 185.504
-14.0207 -1.5134701 185.44501
-13.986 -1.51352 185.452
-13.9504 -1.5134799 185.446
-13.9126 -1.5132 185.41299
-13.8784 -1.51331 185.42599
-13.8377 -1.51271 185.35201
-13.7994 -1.51236 185.31
-13.7605 -1.51195 185.259
-13.7267 -1.5121 185.27699
-13.6901 -1.51194 185.258
-13.6529 -1.51171 185.23
-13.6169 -1.51161 185.218
-13.5793 -1.51134 185.185
-13.5412 -1.5110101 185.144
-13.5025 -1.51061 185.095
-13.4681 -1.5107 185.106
-13.4276 -1.51008 185.03
-13.3932 -1.51017 185.041
-13.321 -1.50995 185.01401
-13.2894 -1.51034 185.062
-13.2475 -1.50957 184.967
-13.2125 -1.50958 184.96899
-13.175 -1.5093 184.935
-13.1405 -1.50937 184.94299
-13.1032 -1.50912 184.912
-13.069 -1.50922 184.924
-12.9984 -1.5091701 184.918
-12.9593 -1.5087 184.86099
-12.9254 -1.50884 184.87801
-12.8942 -1.5093 184.93401
-12.8615 -1.50958 184.968
-12.7876 -1.50914 184.91499
-12.7525 -1.50914 184.914
-12.7158 -1.50894 184.89101
-12.6822 -1.50913 184.91299
-12.6466 -1.50906 184.90401
-12.6148 -1.50945 184.953
-12.5841 -1.50998 185.01801
-12.5509 -1.51021 185.045
-12.5142 -1.51002 185.02299
-12.4757 -1.5096 184.972
-12.4404 -1.50958 184.968
-12.406 -1.50967 184.98
-12.373 -1.50992 185.00999
-12.3396 -1.51013 185.036
-12.308 -1.51056 185.089
-12.2774 -1.51112 185.157
-12.2417 -1.51104 185.14799
-12.2062 -1.5110101 185.144
-12.1712 -1.5110199 185.144
-12.1347 -1.51085 185.12399
-12.1023 -1.5111901 185.166
-12.0704 -1.51159 185.215
-12.0328 -1.51129 185.17799
-11.9747 -1.51282 185.366
-11.9382 -1.51266 185.34599
-11.9059 -1.51302 185.39
-11.8722 -1.5132101 185.41299
-11.838 -1.51333 185.42799
-11.7764 -1.51446 185.56599
-11.7429 -1.51468 185.593
-11.7085 -1.5147901 185.606
-11.6734 -1.5148 185.608
-11.6409 -1.51516 185.65199
-11.6047 -1.51502 185.636
-11.57 -1.5151 185.645
-11.535 -1.51513 185.64799
-11.5001 -1.51517 185.653
-11.4677 -1.51554 185.69901
-11.4342 -1.51577 185.72701
-11.3348 -1.51662 185.83099
-11.3013 -1.51685 185.86
-11.2659 -1.51684 185.858
-11.2263 -1.51625 185.786
-11.1884 -1.5159 185.743
-11.1558 -1.51626 185.787
-11.1249 -1.51684 185.858
-11.0932 -1.5173301 185.918
-11.0581 -1.51735 185.92101
-11.0208 -1.5170799 185.88699
-10.9865 -1.51722 185.90401
-10.952 -1.51732 185.91701
-10.9175 -1.5174299 185.92999
-10.8862 -1.51799 185.99899
-10.8567 -1.5188 186.09801
-10.8256 -1.51938 186.16901
-10.7641 -1.52068 186.328
-10.7354 -1.52162 186.444
-10.7053 -1.52237 186.536
-10.676 -1.52324 186.642
-10.6452 -1.5239 186.72301
-10.6181 -1.5251 186.87
-10.5894 -1.52608 186.99001
-10.5251 -1.52704 187.108
-10.4905 -1.5271699 187.12399
-10.4559 -1.5273 187.13901
-10.4209 -1.52738 187.149
-10.3876 -1.52771 187.189
-10.3539 -1.52797 187.222
-10.2908 -1.52916 187.367
-10.26 -1.52987 187.45399
-10.1936 -1.53057 187.541
-10.1537 -1.52991 187.46001
-10.1164 -1.52966 187.429
-10.0864 -1.5305099 187.533
-10.0521 -1.5307 187.556
-10.0165 -1.53069 187.55499
-9.9818296 -1.53084 187.573
-9.96453 -1.53365 187.918
-9.8391895 -1.54195 188.93401
-9.8012695 -1.54162 188.895
-9.7746 -1.54307 189.07201
-9.8207598 -1.56762 192.08
-9.7882099 -1.56824 192.15601
-9.7143698 -1.56809 192.138
-9.6693401 -1.5667 191.968
-9.6262302 -1.5656199 191.83501
-9.6073103 -1.56847 192.18401
-9.5808697 -1.57011 192.386
-9.5454102 -1.57028 192.407
-9.5073004 -1.57002 192.37399
-9.4330397 -1.56981 192.349
-9.2148895 -1.56995 192.366
-8.9297504 -1.57116 192.51401
-8.88869 -1.5703599 192.416
-8.8451099 -1.5691 192.26199
-8.8188496 -1.57092 192.485
-8.7828503 -1.57102 192.49699
-8.7434998 -1.57051 192.43401
-8.70403 -1.56998 192.369
-8.6651602 -1.56955 192.317
-8.63832 -1.5713 192.53101
-8.6039801 -1.5717 192.58099
-8.0549603 -1.57153 192.55901
-7.4840202 -1.5743999 192.911
-7.4432702 -1.5735199 192.80299
-7.2371702 -1.57644 193.161
-6.2301998 -1.5813299 193.75999
-6.1139798 -1.5798 193.57201
-24.726 -1.46207 183.42
-24.691401 -1.46208 183.422
-24.652 -1.46181 183.388
-24.619101 -1.46193 183.40199
-24.5781 -1.46156 183.356
-24.546499 -1.46174 183.379
-24.5257 -1.46258 183.48399
-24.4972 -1.46296 183.532
-24.348301 -1.4623801 183.459
-24.287901 -1.46293 183.528
-24.245501 -1.4624799 183.47099
-24.207701 -1.4622999 183.44901
-24.1499 -1.46301 183.53799
-24.1085 -1.46261 183.48801
-24.077101 -1.4628201 183.515
-24.0536 -1.46351 183.601
-24.019699 -1.46357 183.608
-23.9877 -1.46374 183.63
-23.954201 -1.46382 183.64
-23.925699 -1.46421 183.688
-23.8895 -1.46413 183.67799
-23.855499 -1.46418 183.685
-23.817101 -1.4639699 183.658
-23.6985 -1.4631 183.549
-23.661501 -1.46296 183.532
-23.630501 -1.4632 183.562
-23.595301 -1.4631701 183.55901
-23.573601 -1.46399 183.661
-23.507401 -1.46421 183.688
-23.4009 -1.46409 183.673
-23.364201 -1.4639699 183.659
-23.3232 -1.46358 183.61
-23.2848 -1.46336 183.582
-23.247999 -1.46324 183.567
-23.214001 -1.46329 183.573
-23.1779 -1.46321 183.563
-23.145901 -1.46339 183.586
-23.114401 -1.4636 183.612
-23.0818 -1.46374 183.63
-23.0506 -1.4639699 183.659
-23.018999 -1.46418 183.685
-22.9869 -1.46435 183.707
-22.9541 -1.4644901 183.724
-22.9207 -1.4645801 183.735
-22.888 -1.46472 183.752
-22.849501 -1.46448 183.72301
-22.8141 -1.46445 183.71899
-22.7833 -1.46471 183.75101
-22.710899 -1.46454 183.73
-22.648399 -1.46501 183.789
-22.627001 -1.46588 183.89799
-22.5951 -1.4660701 183.922
-22.558201 -1.46595 183.90601
-22.5233 -1.46595 183.90601
-22.485001 -1.4657201 183.879
-22.4536 -1.46595 183.907
-22.4186 -1.46594 183.90601
-22.379499 -1.46567 183.871
-22.346399 -1.46579 183.886
-22.3134 -1.46591 183.90199
-22.2787 -1.46592 183.903
-22.2411 -1.46574 183.881
-22.216999 -1.46646 183.97099
-22.1884 -1.46687 184.02299
-22.163601 -1.46754 184.106
-22.1273 -1.46745 184.095
-22.097799 -1.46781 184.14
-22.0641 -1.4679 184.151
-22.022499 -1.46745 184.095
-21.983999 -1.4672101 184.065
-21.953899 -1.46753 184.105
-21.916401 -1.46736 184.084
-21.853901 -1.46786 184.146
-21.821501 -1.46803 184.16701
-21.7941 -1.4685301 184.231
-21.669701 -1.4695801 184.36301
-21.5319 -1.46973 184.381
-21.4958 -1.46966 184.37199
-21.457701 -1.46944 184.34399
-21.426701 -1.46971 184.37801
-21.400499 -1.47031 184.45399
-21.2978 -1.47047 184.474
-21.2626 -1.4704601 184.472
-21.2078 -1.4715101 184.604
-21.1779 -1.4718699 184.64999
-21.1406 -1.47171 184.63
-20.9988 -1.4716001 184.61501
-20.9653 -1.4717 184.629
-20.930099 -1.4716901 184.627
-20.8937 -1.4716001 184.61501
-20.862301 -1.47185 184.647
-20.7903 -1.47172 184.63
-20.749001 -1.47127 184.57401
-20.712601 -1.4711699 184.562
-20.6786 -1.4712501 184.571
-20.6434 -1.47123 184.569
-20.6077 -1.47118 184.563
-20.5746 -1.47132 184.58099
-20.5385 -1.47124 184.571
-20.503599 -1.47126 184.57201
-20.466999 -1.47114 184.558
-20.443899 -1.47199 184.66499
-20.4007 -1.47141 184.592
-20.333799 -1.47164 184.62
-20.299801 -1.47172 184.63
-20.264099 -1.47166 184.623
-20.2293 -1.47168 184.62601
-20.198299 -1.47197 184.662
-20.161699 -1.4718601 184.64799
-20.125401 -1.47177 184.63699
-20.0921 -1.4719 184.653
-20.064301 -1.47243 184.71899
-20.025801 -1.47217 184.687
-19.989799 -1.4721 184.67799
-19.9538 -1.47203 184.67
-19.912201 -1.47155 184.60899
-19.876801 -1.4715199 184.606
-19.8318 -1.47078 184.513
-19.7932 -1.47051 184.479
-19.7609 -1.47071 184.504
-19.726999 -1.4708 184.515
-19.690901 -1.47071 184.505
-19.650999 -1.47035 184.45799
-19.6157 -1.47033 184.45599
-19.583401 -1.47053 184.481
-19.5439 -1.47019 184.438
-19.5082 -1.47014 184.43201
-19.472601 -1.47009 184.427
-19.434 -1.46982 184.392
-19.3993 -1.46984 184.395
-19.3627 -1.46972 184.38
-19.3265 -1.46963 184.368
-19.288799 -1.46942 184.342
-19.2488 -1.46903 184.29401
-19.2132 -1.46898 184.287
-19.179501 -1.46908 184.3
-19.152 -1.46966 184.37199
-19.118999 -1.46981 184.39101
-19.0826 -1.4697 184.377
-19.0415 -1.4692301 184.31799
-19.004601 -1.46908 184.299
-18.9767 -1.46963 184.369
-18.869101 -1.46942 184.342
-18.8307 -1.46916 184.30901
-18.7995 -1.46945 184.345
-18.7658 -1.46955 184.358
-18.7314 -1.4695899 184.364
-18.694099 -1.4694099 184.341
-18.6584 -1.46936 184.334
-18.627501 -1.4696701 184.37399
-18.5924 -1.46966 184.373
-18.5564 -1.4695899 184.36301
-18.5257 -1.4699301 184.405
-18.4944 -1.47022 184.44299
-18.455601 -1.46992 184.40401
-18.4165 -1.4695899 184.36301
-18.3832 -1.46973 184.38
-18.3494 -1.46982 184.392
-18.315399 -1.4699 184.40199
-18.281401 -1.46998 184.412
-18.249599 -1.47024 184.444
-18.219999 -1.47067 184.49899
-18.187 -1.47084 184.52
-18.1532 -1.47093 184.53101
-18.114201 -1.47061 184.491
-18.0791 -1.4706 184.49001
-18.041401 -1.4703799 184.463
-18.0051 -1.47027 184.44901
-17.969801 -1.47025 184.446
-17.938299 -1.47054 184.48199
-17.901199 -1.4703701 184.461
-17.865801 -1.47033 184.45599
-17.832199 -1.47045 184.47099
-17.797899 -1.4705 184.478
-17.771299 -1.4712 184.565
-17.736401 -1.47121 184.567
-17.6693 -1.47145 184.597
-17.6451 -1.47236 184.711
-17.609501 -1.4723099 184.705
-17.5742 -1.47229 184.703
-17.545401 -1.47281 184.76801
-17.515301 -1.47323 184.82001
-17.4839 -1.4735399 184.85899
-17.450399 -1.47368 184.87601
-17.417999 -1.4739 184.90401
-17.3815 -1.47378 184.88901
-17.3531 -1.47435 184.961
-17.324699 -1.47492 185.032
-17.287201 -1.47471 185.006
-17.2514 -1.47466 184.99899
-17.212299 -1.47431 184.95599
-17.1404 -1.47416 184.937
-17.106899 -1.4743 184.95399
-17.072701 -1.47438 184.964
-16.9235 -1.47361 184.868
-16.8897 -1.47372 184.882
-16.858101 -1.47403 184.92101
-16.608999 -1.47372 184.882
-16.575899 -1.4738899 184.903
-16.43 -1.47339 184.84
-16.4028 -1.47411 184.92999
-16.366699 -1.47401 184.918
-16.334101 -1.4742399 184.94701
-16.2994 -1.47427 184.95
-16.266399 -1.47446 184.974
-16.2321 -1.47453 184.98399
-16.1413 -1.47586 185.14999
-16.105101 -1.47576 185.138
-16.0681 -1.47559 185.116
-16.031601 -1.4754601 185.10001
-15.9973 -1.47554 185.11
-15.9721 -1.47646 185.22501
-15.9412 -1.47684 185.274
-15.9057 -1.47681 185.27
-15.8726 -1.47701 185.29401
-15.8473 -1.4779299 185.409
-15.8185 -1.47852 185.48399
-15.7912 -1.47926 185.577
-15.7773 -1.48127 185.828
-15.7689 -1.48379 186.145
-15.7302 -1.48347 186.105
-15.6032 -1.48147 185.854
-15.5684 -1.48151 185.85899
-15.531 -1.48131 185.834
-15.4962 -1.4813499 185.839
-15.4592 -1.48119 185.81799
-15.4215 -1.48095 185.789
-15.3831 -1.48066 185.752
-15.3421 -1.4801 185.68201
-15.3035 -1.47978 185.64101
-15.2696 -1.47991 185.657
-15.2356 -1.48002 185.672
-15.1995 -1.47993 185.661
-15.161 -1.47962 185.621
-15.1297 -1.47999 185.66901
-15.0962 -1.48017 185.69
-15.0598 -1.48006 185.67599
-15.0277 -1.48036 185.715
-14.9939 -1.4805 185.73199
-14.956 -1.48024 185.7
-14.9206 -1.48023 185.698
-14.8821 -1.4799 185.657
-14.8454 -1.47975 185.638
-14.81 -1.47974 185.636
-14.7739 -1.47964 185.625
-14.739 -1.4796799 185.629
-14.7043 -1.47973 185.636
-14.6702 -1.4798501 185.651
-14.631 -1.47944 185.599
-14.5906 -1.47892 185.533
-14.5645 -1.47984 185.64999
-14.526 -1.4795099 185.60699
-14.4907 -1.4795001 185.606
-14.4554 -1.4795001 185.606
-14.4194 -1.4794101 185.59599
-14.3793 -1.47891 185.532
-14.3443 -1.47893 185.536
-14.3083 -1.47885 185.52499
-14.2713 -1.47867 185.502
-14.2343 -1.47848 185.478
-14.2042 -1.479 185.54401
-14.1677 -1.47887 185.528
-14.0945 -1.47858 185.491
-14.0593 -1.47857 185.49001
-13.9862 -1.47829 185.45399
-13.9521 -1.47841 185.47
-13.9175 -1.47847 185.47701
-13.88 -1.47822 185.446
-13.8398 -1.47769 185.379
-13.8002 -1.4772201 185.32001
-13.7595 -1.47662 185.245
-13.7271 -1.47692 185.283
-13.6896 -1.47667 185.25101
-13.6519 -1.47638 185.216
-13.6134 -1.47602 185.17
-13.5802 -1.47623 185.19701
-13.5424 -1.47595 185.161
-13.5013 -1.4752899 185.078
-13.4703 -1.47575 185.136
-13.426 -1.47473 185.008
-13.355 -1.47464 184.99699
-13.3209 -1.4747601 185.01199
-13.284 -1.47456 184.987
-13.2467 -1.4743201 184.95599
-13.2137 -1.47455 184.985
-13.1745 -1.47409 184.92799
-13.1409 -1.47426 184.94901
-13.1065 -1.4743299 184.95799
-13.0687 -1.47403 184.92
-13.0348 -1.47417 184.938
-12.9996 -1.4741499 184.936
-12.9583 -1.4734499 184.847
-12.9236 -1.47349 184.85201
-12.896 -1.47434 184.959
-12.864 -1.4747 185.004
-12.8266 -1.47443 184.97099
-12.7899 -1.47425 184.948
-12.7519 -1.47391 184.905
-12.7162 -1.47384 184.896
-12.6833 -1.4741 184.929
-12.6474 -1.474 184.916
-12.6145 -1.47425 184.948
-12.5807 -1.4744101 184.968
-12.5462 -1.47447 184.976
-12.5113 -1.4744999 184.98
-12.4741 -1.47425 184.948
-12.4379 -1.47412 184.931
-12.4044 -1.47431 184.95599
-12.3753 -1.4750201 185.045
-12.3456 -1.47567 185.12601
-12.3089 -1.47548 185.10201
-12.2769 -1.47586 185.14999
-12.2419 -1.47587 185.151
-12.2084 -1.47607 185.177
-12.1752 -1.4763 185.20599
-12.1363 -1.47585 185.14799
-12.1014 -1.47588 185.15199
-12.0708 -1.47644 185.222
-12.0363 -1.47651 185.23199
-11.9751 -1.47764 185.373
-11.9395 -1.4775701 185.36501
-11.9059 -1.47777 185.39
-11.8701 -1.4777 185.381
-11.8359 -1.47782 185.396
-11.7392 -1.47892 185.535
-11.7079 -1.4794199 185.597
-11.6739 -1.47958 185.617
-11.6414 -1.47992 185.66
-11.6053 -1.47982 185.647
-11.5693 -1.47971 185.633
-11.5348 -1.4798 185.645
-11.5014 -1.48004 185.674
-11.4696 -1.48048 185.73
-11.4381 -1.48097 185.791
-11.4029 -1.48097 185.791
-11.3689 -1.48114 185.813
-11.3369 -1.48156 185.86501
-11.3009 -1.48147 185.853
-11.2654 -1.4814301 185.849
-11.1909 -1.4809099 185.784
-11.1547 -1.48079 185.76801
-11.0905 -1.48163 185.873
-11.0554 -1.48165 185.877
-11.0181 -1.48138 185.842
-10.9876 -1.48202 185.923
-10.9551 -1.4823999 185.97
-10.9204 -1.48247 185.98
-10.8896 -1.48308 186.056
-10.8566 -1.4834 186.09599
-10.8205 -1.4833 186.08299
-10.7905 -1.48402 186.173
-10.7644 -1.4852999 186.334
-10.704 -1.48672 186.51199
-10.6737 -1.48744 186.603
-10.6411 -1.48783 186.651
-10.6112 -1.4886 186.748
-10.5511 -1.4901201 186.939
-10.5186 -1.49054 186.991
-10.4846 -1.49075 187.01801
-10.4529 -1.4913 187.08701
-10.4202 -1.49169 187.136
-10.3854 -1.4917901 187.14799
-10.3495 -1.49173 187.14101
-10.2814 -1.49216 187.19501
-10.253 -1.4931999 187.326
-10.2191 -1.49344 187.355
-10.1822 -1.49324 187.33
-10.1434 -1.4927599 187.27
-10.1075 -1.49271 187.26401
-10.0716 -1.49266 187.257
-10.0319 -1.49204 187.17999
-9.9924698 -1.49145 187.106
-9.9582701 -1.49165 187.13
-9.9265499 -1.49221 187.202
-9.8226404 -1.50349 188.617
-9.7965403 -1.50498 188.804
-9.7547503 -1.50406 188.688
-9.7880497 -1.53168 192.153
-9.7565098 -1.53246 192.25
-9.5465403 -1.53389 192.42999
-9.4315395 -1.533 192.31799
-9.1520004 -1.53508 192.57899
-8.92661 -1.5340199 192.446
-8.8912697 -1.53422 192.472
-8.8229399 -1.53504 192.57401
-8.7131701 -1.53501 192.571
-8.6684303 -1.53356 192.38901
-8.6315498 -1.5335 192.381
-8.6035004 -1.53501 192.57001
-8.5634899 -1.53438 192.492
-7.94561 -1.53497 192.565
-7.4858699 -1.5381 192.95799
-7.4508901 -1.53844 193.00101
-6.11414 -1.54304 193.577
-24.7262 -1.42721 183.422
-24.6933 -1.42732 183.436
-24.6569 -1.42723 183.424
-24.6196 -1.42708 183.405
-24.575199 -1.42653 183.334
-24.540001 -1.4265 183.33099
-24.488501 -1.42756 183.466
-24.346201 -1.42738 183.44299
-24.310499 -1.42733 183.437
-24.2866 -1.4279701 183.519
-24.2463 -1.42765 183.47701
-24.207399 -1.4274 183.446
-24.18 -1.42784 183.50301
-24.143999 -1.42777 183.494
-24.101 -1.42729 183.431
-24.072599 -1.42766 183.48
-23.983801 -1.4286 183.60001
-23.949699 -1.42865 183.606
-23.923201 -1.42914 183.67
-23.884899 -1.4289401 183.64301
-23.852501 -1.42908 183.662
-23.813 -1.4288 183.62601
-23.771601 -1.4284101 183.575
-23.7377 -1.42846 183.58299
-23.695 -1.42799 183.521
-23.6595 -1.42795 183.517
-23.625099 -1.4279799 183.52
-23.5896 -1.42793 183.51401
-23.5655 -1.42858 183.59801
-23.5352 -1.4288599 183.633
-23.4991 -1.42878 183.62399
-23.468399 -1.4290299 183.65601
-23.434299 -1.42908 183.662
-23.393101 -1.42869 183.612
-23.3571 -1.42862 183.603
-23.318001 -1.42836 183.569
-23.282499 -1.4283201 183.564
-23.245701 -1.4282 183.549
-23.208599 -1.4280601 183.53101
-23.1724 -1.4279701 183.52
-23.1394 -1.42808 183.534
-23.1054 -1.42814 183.541
-23.0793 -1.42867 183.61
-23.052 -1.42914 183.67
-22.9494 -1.42926 183.686
-22.8848 -1.42959 183.72701
-22.812 -1.42939 183.702
-22.780701 -1.42961 183.73
-22.7421 -1.4293801 183.701
-22.7096 -1.42953 183.71899
-22.681101 -1.42993 183.771
-22.6434 -1.42975 183.748
-22.621 -1.43054 183.849
-22.590599 -1.43082 183.886
-22.5546 -1.43075 183.87601
-22.5212 -1.43085 183.88901
-22.4837 -1.43068 183.867
-22.454 -1.43101 183.91
-22.417999 -1.43094 183.901
-22.379999 -1.43074 183.87601
-22.348 -1.43093 183.899
-22.314199 -1.431 183.908
-22.278299 -1.43093 183.89999
-22.2411 -1.4307899 183.881
-22.209499 -1.43099 183.908
-22.174101 -1.4309601 183.90401
-22.1541 -1.4319201 184.02699
-22.121099 -1.43205 184.043
-22.064899 -1.43294 184.158
-22.0285 -1.43284 184.145
-21.9877 -1.43246 184.09599
-21.955299 -1.4326299 184.118
-21.915899 -1.43233 184.08
-21.889299 -1.43288 184.14999
-21.8162 -1.43267 184.123
-21.7932 -1.43345 184.224
-21.759701 -1.43355 184.23599
-21.724501 -1.43353 184.23399
-21.695299 -1.43391 184.283
-21.662901 -1.43408 184.30499
-21.529699 -1.43453 184.362
-21.4988 -1.4348 184.397
-21.459499 -1.43451 184.36
-21.4237 -1.43445 184.35201
-21.3965 -1.43498 184.42
-21.3666 -1.43532 184.464
-21.3321 -1.43536 184.468
-21.2952 -1.43523 184.452
-21.257999 -1.4350801 184.43201
-21.228399 -1.4354399 184.48
-21.202 -1.43603 184.554
-21.1752 -1.43659 184.62601
-21.1387 -1.4364901 184.614
-21.101 -1.4363 184.59
-21.026199 -1.43598 184.548
-20.9911 -1.4359699 184.547
-20.958599 -1.4361399 184.569
-20.819099 -1.43618 184.575
-20.7827 -1.43609 184.563
-20.745199 -1.43592 184.541
-20.7111 -1.43598 184.548
-20.6772 -1.43606 184.55901
-20.640699 -1.43595 184.545
-20.608101 -1.43612 184.567
-20.575701 -1.4363101 184.591
-20.5371 -1.4360501 184.558
-20.497999 -1.43577 184.521
-20.461901 -1.43569 184.51199
-20.443501 -1.43686 184.662
-20.400499 -1.4363 184.59
-20.363199 -1.4361399 184.57001
-20.333599 -1.43652 184.618
-20.2924 -1.43608 184.562
-20.230101 -1.43664 184.633
-20.1984 -1.43687 184.664
-20.1563 -1.43637 184.599
-20.1236 -1.43653 184.62
-20.0921 -1.43679 184.65199
-20.064301 -1.43731 184.71899
-20.0289 -1.4372801 184.716
-19.989 -1.4369299 184.67101
-19.9513 -1.43674 184.647
-19.9121 -1.43644 184.60699
-19.875601 -1.43633 184.59399
-19.8325 -1.43575 184.519
-19.792999 -1.43543 184.478
-19.759701 -1.43555 184.493
-19.726801 -1.4357001 184.513
-19.694799 -1.43592 184.541
-19.6574 -1.43575 184.519
-19.623199 -1.43581 184.526
-19.5856 -1.43562 184.502
-19.546499 -1.43532 184.463
-19.509199 -1.43515 184.442
-19.4744 -1.43516 184.444
-19.401199 -1.43492 184.41299
-19.361 -1.43454 184.364
-19.326599 -1.43458 184.369
-19.292101 -1.43462 184.37399
-19.2561 -1.43454 184.364
-19.219801 -1.43445 184.351
-19.181299 -1.43418 184.317
-19.150499 -1.4345 184.358
-19.119301 -1.43478 184.394
-19.0849 -1.4348201 184.39999
-19.044901 -1.43444 184.351
-19.004601 -1.43404 184.3
-18.9767 -1.43458 184.368
-18.945499 -1.43486 184.405
-18.909599 -1.43479 184.396
-18.872 -1.43459 184.37
-18.8335 -1.43433 184.33701
-18.8008 -1.4345 184.358
-18.7673 -1.43462 184.373
-18.734301 -1.43476 184.392
-18.6975 -1.43463 184.375
-18.6609 -1.4345 184.35899
-18.629601 -1.43478 184.395
-18.5986 -1.4350899 184.435
-18.562401 -1.4349999 184.423
-18.527201 -1.43499 184.42101
-18.4918 -1.43495 184.416
-18.452801 -1.43464 184.377
-18.416201 -1.43451 184.36
-18.380899 -1.43449 184.35699
-18.3487 -1.43471 184.386
-18.320299 -1.43522 184.452
-18.2852 -1.43522 184.451
-18.2535 -1.43548 184.48399
-18.2248 -1.4359699 184.547
-18.190001 -1.43599 184.549
-18.153799 -1.43589 184.53799
-18.1152 -1.4356101 184.50101
-18.0795 -1.43555 184.494
-18.039 -1.43512 184.438
-18.0035 -1.4350801 184.433
-17.974701 -1.43558 184.49699
-17.942101 -1.43577 184.521
-17.9032 -1.43545 184.481
-17.868401 -1.43547 184.483
-17.835899 -1.43567 184.509
-17.805201 -1.43602 184.554
-17.775999 -1.4364901 184.614
-17.740601 -1.43646 184.61
-17.7024 -1.4362 184.577
-17.669201 -1.43635 184.59599
-17.612301 -1.43742 184.73399
-17.5811 -1.43774 184.774
-17.5509 -1.43814 184.826
-17.516001 -1.43815 184.828
-17.482201 -1.4382499 184.841
-17.451099 -1.43858 184.883
-17.4146 -1.43847 184.868
-17.386 -1.439 184.937
-17.356899 -1.4395 185.00101
-17.323601 -1.4396501 185.02
-17.2822 -1.4391299 184.953
-17.250799 -1.43943 184.992
-17.221001 -1.43988 185.05
-17.1766 -1.4391 184.94901
-17.1457 -1.43945 184.995
-17.073099 -1.43925 184.96899
-16.9282 -1.4388601 184.91901
-16.889299 -1.43854 184.87801
-16.856701 -1.43875 184.905
-16.6092 -1.43859 184.884
-16.575199 -1.4386801 184.895
-16.4321 -1.43844 184.86501
-16.403099 -1.43897 184.933
-16.364 -1.43861 184.88699
-16.3319 -1.43888 184.92101
-16.304199 -1.43953 185.005
-16.270399 -1.4396501 185.02
-16.140301 -1.44057 185.13901
-16.102501 -1.44033 185.108
-16.069599 -1.4405299 185.134
-16.0331 -1.44041 185.118
-15.9942 -1.44007 185.07401
-15.9707 -1.44111 185.20799
-15.9438 -1.44186 185.304
-15.9051 -1.44154 185.263
-15.8638 -1.44098 185.19099
-15.8437 -1.44235 185.367
-15.8232 -1.4436899 185.53999
-15.7972 -1.44453 185.647
-15.7819 -1.44635 185.882
-15.768 -1.44832 186.134
-15.6034 -1.4461499 185.856
-15.4963 -1.44604 185.841
-15.4547 -1.4454401 185.765
-15.4154 -1.44506 185.715
-15.3773 -1.44479 185.681
-15.3428 -1.44486 185.69
-15.31 -1.4450901 185.71899
-15.2717 -1.4448 185.68201
-15.234 -1.4445699 185.65199
-15.1977 -1.44446 185.63901
-15.1716 -1.44534 185.75101
-15.1347 -1.4451801 185.731
-15.0978 -1.44502 185.711
-15.0586 -1.44464 185.661
-15.0237 -1.44467 185.666
-14.9901 -1.4448299 185.686
-14.9566 -1.44499 185.707
-14.9232 -1.44517 185.729
-14.8832 -1.44471 185.67101
-14.8473 -1.4446501 185.662
-14.8134 -1.44477 185.67799
-14.7761 -1.44458 185.653
-14.738 -1.44429 185.617
-14.7021 -1.4442199 185.608
-14.6741 -1.44494 185.7
-14.6345 -1.4445 185.644
-14.5622 -1.44432 185.62
-14.523 -1.44392 185.569
-14.4926 -1.44441 185.632
-14.4565 -1.4443099 185.62
-14.4211 -1.4443001 185.618
-14.3487 -1.4441 185.593
-14.3143 -1.44418 185.60201
-14.276 -1.4438699 185.562
-14.2377 -1.44356 185.52299
-14.1985 -1.44315 185.47
-14.1661 -1.44344 185.507
-14.0935 -1.44321 185.478
-14.0609 -1.44347 185.51199
-14.026 -1.4435101 185.517
-13.9913 -1.44356 185.52299
-13.9567 -1.44362 185.53101
-13.9191 -1.44338 185.49899
-13.877 -1.44266 185.407
-13.838 -1.44226 185.355
-13.8004 -1.44201 185.323
-13.763 -1.44177 185.293
-13.7303 -1.44203 185.326
-13.6879 -1.44126 185.228
-13.6084 -1.44029 185.10201
-13.5806 -1.4410599 185.202
-13.5458 -1.4411 185.207
-13.503 -1.44028 185.101
-13.47 -1.44052 185.132
-13.4308 -1.44008 185.075
-13.3935 -1.43984 185.045
-13.3629 -1.44033 185.108
-13.3295 -1.44051 185.131
-13.2443 -1.43889 184.923
-13.2132 -1.43932 184.978
-13.1755 -1.4390399 184.94099
-13.1418 -1.43919 184.961
-13.1064 -1.43916 184.957
-13.0698 -1.439 184.937
-13.036 -1.4391299 184.95399
-13.0013 -1.43918 184.96001
-12.9606 -1.43855 184.879
-12.93 -1.43905 184.94299
-12.9015 -1.43979 185.03799
-12.8629 -1.4394 184.98801
-12.8272 -1.43933 184.979
-12.793 -1.43944 184.993
-12.7542 -1.43902 184.94
-12.7205 -1.43918 184.959
-12.6862 -1.43927 184.97099
-12.6486 -1.43898 184.93401
-12.6145 -1.43909 184.948
-12.5799 -1.43915 184.957
-12.5449 -1.43916 184.957
-12.5083 -1.43899 184.936
-12.4749 -1.43918 184.96001
-12.4448 -1.43976 185.034
-12.4107 -1.43988 185.05
-12.3799 -1.44038 185.11301
-12.3472 -1.44066 185.14999
-12.3133 -1.4408 185.16901
-12.2773 -1.4407001 185.15601
-12.2409 -1.44055 185.136
-12.2098 -1.44103 185.198
-12.1786 -1.4414901 185.257
-12.1391 -1.44098 185.19099
-12.1021 -1.44076 185.16299
-12.0697 -1.44108 185.20399
-12.0375 -1.44144 185.25
-12.0094 -1.4422801 185.35899
-11.9768 -1.4426 185.399
-11.9407 -1.44248 185.384
-11.9056 -1.44249 185.38499
-11.8711 -1.44258 185.397
-11.838 -1.44283 185.429
-11.778 -1.4441 185.592
-11.711 -1.44453 185.647
-11.6731 -1.44419 185.603
-11.64 -1.44445 185.63699
-11.6045 -1.44442 185.633
-11.5684 -1.4443099 185.619
-11.5349 -1.44453 185.647
-11.5015 -1.44475 185.67599
-11.4688 -1.44508 185.718
-11.4413 -1.44605 185.842
-11.409 -1.44643 185.89101
-11.3741 -1.44647 185.897
-11.3397 -1.4465899 185.912
-11.3046 -1.44661 185.914
-11.2706 -1.44677 185.935
-11.233 -1.44647 185.897
-11.196 -1.4462399 185.868
-11.1189 -1.4454 185.759
-11.0875 -1.4459 185.823
-11.0166 -1.44584 185.81599
-10.986 -1.44646 185.895
-10.9525 -1.44669 185.925
-10.9178 -1.4467601 185.935
-10.8595 -1.44841 186.146
-10.8265 -1.44871 186.185
-10.7935 -1.4490401 186.226
-10.761 -1.44941 186.27499
-10.7297 -1.44996 186.345
-10.6955 -1.45012 186.366
-10.6675 -1.45112 186.494
-10.6404 -1.45225 186.63901
-10.611 -1.45307 186.746
-10.5792 -1.45356 186.80901
-10.5482 -1.45418 186.88699
-10.5162 -1.4546601 186.94901
-10.4842 -1.45514 187.011
-10.454 -1.45588 187.106
-10.4197 -1.45605 187.12801
-10.3834 -1.45593 187.11301
-10.3098 -1.45558 187.067
-10.2791 -1.45625 187.153
-10.2487 -1.45697 187.24699
-10.2126 -1.4569 187.237
-10.1785 -1.4571 187.263
-10.1412 -1.45684 187.229
-10.1054 -1.4568 187.224
-10.0719 -1.4571 187.26199
-10.0332 -1.45664 187.20399
-9.99401 -1.4561 187.13499
-9.9540701 -1.4554501 187.05099
-9.91257 -1.4545701 186.938
-9.8783798 -1.45476 186.96201
-9.8584499 -1.45706 187.258
-9.8342505 -1.45874 187.474
-9.8196898 -1.46187 187.87601
-9.80268 -1.46465 188.233
-9.7790699 -1.46647 188.467
-9.7523203 -1.46782 188.64101
-9.7954998 -1.49629 192.299
-9.7500801 -1.49492 192.123
-9.62356 -1.49226 191.782
-9.49823 -1.49544 192.19099
-9.39116 -1.49582 192.239
-9.3522902 -1.49543 192.189
-8.9267902 -1.49746 192.45
-8.89112 -1.4976 192.468
-8.8550196 -1.4976701 192.47701
-8.8176498 -1.49753 192.459
-8.7809496 -1.4974999 192.455
-8.7474403 -1.4980201 192.521
-8.66712 -1.49676 192.36
-8.6399899 -1.49839 192.569
-8.6056299 -1.49876 192.618
-8.3847198 -1.4984699 192.58
-7.9377999 -1.4968801 192.37601
-7.6677699 -1.5011899 192.929
-7.6244898 -1.49988 192.761
-7.45117 -1.5017999 193.008
-6.6947098 -1.50463 193.37199
-24.7528 -1.39188 183.36099
-24.7276 -1.3924201 183.43201
-24.691601 -1.39235 183.423
-24.6553 -1.39227 183.41299
-24.615601 -1.3919899 183.37601
-24.573 -1.3915499 183.31799
-24.537901 -1.39153 183.315
-24.511101 -1.3919801 183.375
-24.4058 -1.39193 183.368
-24.370001 -1.39188 183.36099
-24.342699 -1.3923 183.41701
-24.309299 -1.39238 183.427
-24.284599 -1.39296 183.504
-24.245899 -1.39274 183.474
-24.2026 -1.3922499 183.41
-24.166201 -1.3921601 183.39799
-24.134399 -1.3923301 183.42101
-24.0937 -1.3919899 183.37601
-24.034401 -1.39259 183.45399
-24.000999 -1.39267 183.465
-23.915001 -1.39375 183.60699
-23.8731 -1.39333 183.552
-23.839701 -1.39342 183.564
-23.8155 -1.39404 183.645
-23.7654 -1.39314 183.528
-23.7295 -1.39308 183.519
-23.6945 -1.39307 183.517
-23.583 -1.39266 183.463
-23.526899 -1.39346 183.569
-23.491899 -1.39344 183.567
-23.4603 -1.39364 183.593
-23.427999 -1.39379 183.612
-23.389299 -1.39355 183.582
-23.349001 -1.39323 183.539
-23.310699 -1.39302 183.51199
-23.276899 -1.39309 183.52
-23.2386 -1.39288 183.492
-23.133101 -1.39281 183.48399
-23.1024 -1.39306 183.517
-23.075899 -1.3935699 183.58299
-23.0481 -1.39399 183.63901
-23.0123 -1.39393 183.631
-22.975201 -1.39379 183.61301
-22.9438 -1.3940001 183.64101
-22.9123 -1.39421 183.668
-22.842899 -1.39422 183.67
-22.809099 -1.39429 183.67799
-22.7819 -1.39476 183.741
-22.741301 -1.39441 183.694
-22.7052 -1.39433 183.68401
-22.6759 -1.39467 183.729
-22.642799 -1.39478 183.743
-22.618099 -1.3954 183.825
-22.5814 -1.39529 183.811
-22.5539 -1.39575 183.871
-22.521 -1.39587 183.88699
-22.481199 -1.39557 183.847
-22.440701 -1.39522 183.80099
-22.4063 -1.39525 183.80499
-22.3465 -1.39587 183.88699
-22.312599 -1.3959301 183.895
-22.2728 -1.39562 183.854
-22.2421 -1.39589 183.88901
-22.2027 -1.39561 183.85201
-22.1735 -1.39596 183.899
-22.145399 -1.39639 183.955
-22.1234 -1.3972 184.062
-22.0858 -1.39704 184.041
-22.0641 -1.39788 184.151
-22.0277 -1.3977799 184.138
-21.986099 -1.39736 184.08299
-21.951 -1.39735 184.08099
-21.9147 -1.39726 184.07001
-21.886 -1.39766 184.12199
-21.8461 -1.3973401 184.08099
-21.8109 -1.39732 184.078
-21.7806 -1.39762 184.117
-21.747 -1.3977 184.12801
-21.719801 -1.3982 184.194
-21.696199 -1.39894 184.291
-21.657 -1.3986599 184.255
-21.6248 -1.39884 184.278
-21.4956 -1.3995301 184.369
-21.4604 -1.39952 184.368
-21.4245 -1.39946 184.35899
-21.389099 -1.39943 184.356
-21.364901 -1.40014 184.44901
-21.329599 -1.40012 184.446
-21.2903 -1.39984 184.409
-21.257099 -1.39995 184.425
-21.227699 -1.4003299 184.474
-21.1964 -1.40057 184.506
-21.1367 -1.40125 184.59599
-21.0982 -1.4010201 184.565
-21.059099 -1.40075 184.53
-21.024 -1.40074 184.528
-20.9921 -1.40095 184.556
-20.9559 -1.40087 184.545
-20.922501 -1.40098 184.56
-20.8113 -1.40057 184.506
-20.7827 -1.401 184.563
-20.743099 -1.40069 184.521
-20.7111 -1.40089 184.548
-20.679199 -1.4011 184.576
-20.642 -1.40096 184.55701
-20.531601 -1.4006 184.509
-20.493999 -1.40042 184.48599
-20.466299 -1.40092 184.552
-20.438801 -1.40143 184.62
-20.3955 -1.40087 184.545
-20.3577 -1.4006701 184.519
-20.3281 -1.40105 184.569
-20.2915 -1.4009399 184.554
-20.253799 -1.40075 184.53
-20.2285 -1.40143 184.619
-20.193899 -1.40145 184.62199
-20.1567 -1.4013 184.60201
-20.123501 -1.40143 184.62
-20.09 -1.40153 184.633
-20.065901 -1.4023 184.73399
-20.031601 -1.4023499 184.741
-19.987499 -1.40172 184.657
-19.950199 -1.4015599 184.63699
-19.9128 -1.4014 184.61501
-19.8773 -1.40136 184.61
-19.8375 -1.4010201 184.565
-19.7976 -1.4006799 184.52
-19.769899 -1.4012001 184.589
-19.7335 -1.4011 184.575
-19.6987 -1.4011101 184.578
-19.658701 -1.4007601 184.53
-19.6196 -1.40047 184.493
-19.584299 -1.40045 184.49001
-19.5511 -1.40058 184.507
-19.518999 -1.40078 184.534
-19.4813 -1.4005899 184.508
-19.4426 -1.4003299 184.474
-19.4093 -1.40045 184.49001
-19.3312 -1.39986 184.41299
-19.2931 -1.39963 184.383
-19.257401 -1.39959 184.37601
-19.2262 -1.39986 184.41299
-19.194401 -1.40009 184.44299
-19.1605 -1.40017 184.453
-19.1229 -1.3999799 184.42799
-19.086399 -1.39987 184.414
-19.0481 -1.39963 184.382
-18.980499 -1.3997999 184.405
-18.9417 -1.39952 184.368
-18.871599 -1.39951 184.367
-18.8335 -1.39928 184.33701
-18.7992 -1.39933 184.342
-18.7659 -1.39946 184.36
-18.736401 -1.39986 184.41299
-18.6653 -1.39979 184.403
-18.629 -1.39969 184.38901
-18.5968 -1.3998899 184.416
-18.5296 -1.40011 184.44501
-18.492901 -1.3999799 184.42799
-18.454 -1.39968 184.38901
-18.418699 -1.39966 184.386
-18.382799 -1.39959 184.37601
-18.350901 -1.39982 184.407
-18.320801 -1.40019 184.45599
-18.2852 -1.4001499 184.451
-18.253201 -1.40038 184.48
-18.188801 -1.40081 184.53799
-18.147499 -1.4003201 184.47301
-18.108101 -1.39999 184.429
-18.0765 -1.4002399 184.463
-18.0376 -1.39995 184.424
-17.9715 -1.4002399 184.463
-17.939199 -1.40046 184.491
-17.900499 -1.40017 184.453
-17.868601 -1.4004101 184.485
-17.8356 -1.40057 184.506
-17.8041 -1.40084 184.54201
-17.7731 -1.40116 184.584
-17.739401 -1.40127 184.59801
-17.7083 -1.40157 184.638
-17.677999 -1.40195 184.688
-17.640499 -1.40176 184.66299
-17.618099 -1.40277 184.79601
-17.5856 -1.40297 184.82201
-17.556 -1.40341 184.88
-17.518801 -1.40323 184.85699
-17.4842 -1.40327 184.862
-17.4601 -1.40416 184.979
-17.421499 -1.40387 184.94099
-17.3939 -1.40448 185.021
-17.3563 -1.4042799 184.994
-17.3188 -1.40409 184.96899
-17.2829 -1.40402 184.96001
-17.250401 -1.40423 184.98801
-17.217501 -1.40441 185.01199
-17.179701 -1.4041899 184.983
-17.148001 -1.40447 185.02
-17.110001 -1.40423 184.98801
-17.0415 -1.40437 185.006
-17.0016 -1.40398 184.955
-16.966299 -1.40396 184.952
-16.933001 -1.40411 184.972
-16.8943 -1.40381 184.93201
-16.859301 -1.40381 184.933
-16.820101 -1.40347 184.888
-16.683399 -1.40378 184.92799
-16.6488 -1.40382 184.93401
-16.6106 -1.40355 184.899
-16.5751 -1.40352 184.894
-16.537001 -1.40326 184.86
-16.502199 -1.40329 184.864
-16.4694 -1.4034801 184.88901
-16.4018 -1.4037 184.91901
-16.360201 -1.4031399 184.845
-16.3326 -1.40379 184.929
-16.3055 -1.40447 185.02
-16.136 -1.40499 185.089
-16.105101 -1.40537 185.138
-16.0734 -1.40567 185.17799
-16.0375 -1.4056 185.16901
-15.9994 -1.4053299 185.134
-15.9705 -1.40589 185.20599
-15.948 -1.4069999 185.353
-15.9117 -1.4069 185.34
-15.8768 -1.40692 185.343
-15.8558 -1.40818 185.509
-15.826 -1.4086601 185.57201
-15.7932 -1.40887 185.60001
-15.7646 -1.4126199 186.09399
-15.5987 -1.41039 185.8
-15.5642 -1.41046 185.80901
-15.5285 -1.41043 185.80499
-15.4912 -1.4102401 185.78
-15.4514 -1.40982 185.72501
-15.4136 -1.40958 185.694
-15.3764 -1.40941 185.67
-15.3413 -1.40942 185.672
-15.3093 -1.4097199 185.711
-15.2684 -1.4092 185.642
-15.2304 -1.40894 185.608
-15.1979 -1.4091901 185.642
-15.1708 -1.40995 185.741
-15.1379 -1.4101599 185.77
-15.1062 -1.41049 185.813
-15.0701 -1.4104199 185.804
-15.0296 -1.40992 185.73801
-14.9914 -1.40964 185.701
-14.9607 -1.4100699 185.758
-14.9238 -1.40991 185.737
-14.8844 -1.40953 185.686
-14.8462 -1.40924 185.64799
-14.8106 -1.40921 185.644
-14.7732 -1.409 185.617
-14.7393 -1.40912 185.633
-14.7069 -1.4094 185.66901
-14.6747 -1.40969 185.707
-14.6378 -1.40952 185.685
-14.5968 -1.40897 185.612
-14.5631 -1.40912 185.632
-14.5269 -1.4090199 185.619
-14.4893 -1.40879 185.589
-14.4542 -1.4088 185.59
-14.4175 -1.40865 185.571
-14.2747 -1.40847 185.54601
-14.2374 -1.40826 185.51801
-14.1926 -1.4073 185.39301
-14.162 -1.40776 185.452
-14.129 -1.40797 185.481
-14.0912 -1.40772 185.448
-14.0623 -1.40835 185.53101
-14.0197 -1.4076 185.43201
-13.9837 -1.40753 185.422
-13.9492 -1.40759 185.42999
-13.9147 -1.40766 185.44
-13.8792 -1.40763 185.436
-13.8444 -1.40767 185.44099
-13.8051 -1.40725 185.386
-13.7306 -1.4068201 185.32899
-13.6905 -1.40631 185.263
-13.6517 -1.4059401 185.214
-13.6106 -1.40532 185.132
-13.5808 -1.40588 185.205
-13.5462 -1.4059401 185.213
-13.5028 -1.4050699 185.099
-13.4692 -1.40523 185.12
-13.4311 -1.40492 185.07899
-13.3976 -1.4051 185.10201
-13.3654 -1.4054 185.142
-13.3291 -1.40528 185.12601
-13.2901 -1.40487 185.07201
-13.2505 -1.40439 185.00999
-13.2124 -1.40408 184.968
-13.1789 -1.40424 184.99001
-13.1438 -1.40424 184.989
-13.1052 -1.40387 184.94099
-13.0713 -1.404 184.95799
-13.0359 -1.40397 184.953
-12.9996 -1.4038301 184.936
-12.9625 -1.40361 184.907
-12.9337 -1.40429 184.99699
-12.8978 -1.40421 184.985
-12.8615 -1.40408 184.96899
-12.8301 -1.40448 185.021
-12.798 -1.40481 185.065
-12.7576 -1.40423 184.98801
-12.7203 -1.40398 184.95599
-12.6848 -1.40394 184.95
-12.65 -1.40398 184.955
-12.6122 -1.40367 184.91499
-12.5792 -1.40391 184.94501
-12.5455 -1.40407 184.967
-12.5129 -1.40434 185.00301
-12.4726 -1.4037499 184.925
-12.4413 -1.4041899 184.98199
-12.4128 -1.40493 185.08099
-12.3745 -1.40457 185.033
-12.3435 -1.40504 185.095
-12.3089 -1.4051 185.10201
-12.274 -1.40512 185.105
-12.2403 -1.40529 185.127
-12.208 -1.40562 185.17101
-12.1759 -1.40596 185.216
-12.143 -1.40623 185.25101
-12.1074 -1.40618 185.244
-12.0343 -1.4058501 185.201
-11.9321 -1.40623 185.252
-11.9009 -1.40669 185.312
-11.8723 -1.40747 185.41499
-11.8365 -1.4074 185.40601
-11.8073 -1.40811 185.49899
-11.7739 -1.40833 185.528
-11.7073 -1.40878 185.588
-11.6756 -1.40921 185.644
-11.6447 -1.40973 185.713
-11.609 -1.40967 185.705
-11.5724 -1.40951 185.683
-11.508 -1.4102499 185.78101
-11.476 -1.41064 185.83299
-11.4456 -1.41125 185.91299
-11.4125 -1.41151 185.94701
-11.3753 -1.41128 185.91701
-11.3377 -1.41099 185.879
-11.3014 -1.4108599 185.862
-11.2693 -1.41126 185.914
-11.2353 -1.41142 185.936
-11.1982 -1.41119 185.90601
-11.1604 -1.41087 185.86301
-11.1217 -1.41044 185.806
-11.0878 -1.41061 185.82899
-11.0539 -1.41078 185.85001
-10.9482 -1.4108 185.853
-10.918 -1.41144 185.938
-10.8853 -1.41178 185.983
-10.8515 -1.41197 186.008
-10.7924 -1.41348 186.20599
-10.7614 -1.41405 186.28101
-10.7306 -1.41465 186.36
-10.6993 -1.41519 186.43201
-10.674 -1.41653 186.608
-10.6426 -1.41706 186.67799
-10.6085 -1.41723 186.7
-10.574 -1.4173599 186.718
-10.541 -1.41769 186.761
-10.511 -1.4184099 186.856
-10.4783 -1.41879 186.907
-10.4465 -1.4192899 186.972
-10.4157 -1.41993 187.056
-10.3837 -1.4204 187.118
-10.3479 -1.42037 187.114
-10.3074 -1.41968 187.02299
-10.2731 -1.41984 187.045
-10.2407 -1.42026 187.10001
-10.2055 -1.42031 187.10699
-10.1729 -1.42071 187.159
-10.1383 -1.42085 187.177
-10.0657 -1.42062 187.147
-10.0275 -1.42024 187.097
-9.9906902 -1.42005 187.07201
-9.9534597 -1.4198 187.03999
-9.9141302 -1.41925 186.967
-9.8805199 -1.41952 187.00301
-9.8423595 -1.41914 186.952
-9.8001404 -1.41816 186.823
-9.77211 -1.41924 186.965
-9.7693796 -1.42401 187.59399
-9.7506504 -1.4264801 187.91901
-9.72894 -1.42853 188.189
-9.70823 -1.43074 188.48
-9.6819601 -1.43214 188.66499
-9.6619101 -1.43448 188.97301
-9.7490902 -1.45825 192.104
-9.7033195 -1.4568501 191.92
-9.6686602 -1.45711 191.95399
-9.4300098 -1.45963 192.287
-9.38976 -1.4590501 192.21001
-9.35287 -1.45898 192.201
-9.3092499 -1.45786 192.054
-8.88585 -1.46015 192.354
-8.8529301 -1.46074 192.43201
-8.8208303 -1.46147 192.528
-8.7839699 -1.46141 192.521
-8.7503595 -1.4619 192.58501
-8.7081203 -1.46095 192.46001
-8.6648397 -1.45981 192.30901
-8.6456404 -1.4627301 192.69501
-8.6050501 -1.46205 192.605
-8.4482498 -1.46021 192.36301
-8.4117899 -1.46022 192.364
-8.3447504 -1.46126 192.50101
-8.0662098 -1.46374 192.828
-8.0230703 -1.46255 192.67101
-7.8737102 -1.46197 192.59399
-7.6647601 -1.46393 192.853
-7.62363 -1.46306 192.739
-7.47965 -1.46351 192.798
-7.43993 -1.4629 192.717
-24.7244 -1.35737 183.409
-24.683701 -1.35704 183.36501
-24.6054 -1.35657 183.3
-24.566299 -1.35633 183.267
-24.5348 -1.35651 183.29201
-24.510201 -1.35707 183.368
-24.4786 -1.35725 183.392
-24.4415 -1.35712 183.37399
-24.405199 -1.35704 183.36301
-24.370501 -1.35704 183.364
-24.3438 -1.3574899 183.425
-24.310801 -1.3576 183.439
-24.2782 -1.35772 183.455
-24.24 -1.35753 183.42999
-24.203501 -1.35743 183.41701
-24.1642 -1.35718 183.382
-24.1255 -1.3569601 183.353
-24.0858 -1.35669 183.31599
-24.0485 -1.35654 183.297
-24.0284 -1.35737 183.408
-23.9993 -1.35769 183.452
-23.967199 -1.35785 183.47301
-23.9384 -1.3581899 183.519
-23.9083 -1.3584501 183.55499
-23.8675 -1.35812 183.509
-23.831499 -1.35805 183.5
-23.8109 -1.35886 183.61
-23.7586 -1.35786 183.47501
-23.723 -1.35782 183.46899
-23.6915 -1.358 183.494
-23.648199 -1.35752 183.429
-23.6126 -1.35747 183.423
-23.580601 -1.35764 183.444
-23.5509 -1.3579299 183.48399
-23.489799 -1.35842 183.55099
-23.460699 -1.35876 183.59599
-23.429501 -1.35897 183.62399
-23.388 -1.35858 183.57201
-23.3477 -1.35826 183.52901
-23.3088 -1.35803 183.49699
-23.2701 -1.35779 183.466
-23.188801 -1.35711 183.37399
-23.156401 -1.35725 183.39301
-23.129101 -1.35769 183.452
-23.098301 -1.3579299 183.48399
-23.071301 -1.35839 183.54601
-23.0399 -1.35859 183.57401
-23.0058 -1.35864 183.58
-22.9793 -1.35913 183.646
-22.9079 -1.35902 183.632
-22.8724 -1.35899 183.627
-22.839001 -1.3590699 183.63901
-22.802 -1.35894 183.621
-22.769199 -1.3590699 183.638
-22.7384 -1.35931 183.67101
-22.700001 -1.3591 183.642
-22.6646 -1.35906 183.63699
-22.637699 -1.35954 183.702
-22.6099 -1.35996 183.759
-22.577 -1.36008 183.77499
-22.548 -1.36044 183.823
-22.516899 -1.36066 183.853
-22.480301 -1.3605601 183.839
-22.442499 -1.3603801 183.815
-22.405701 -1.36027 183.8
-22.3682 -1.36011 183.778
-22.333 -1.36009 183.776
-22.304899 -1.3605 183.832
-22.2687 -1.36042 183.821
-22.2409 -1.36085 183.879
-22.206301 -1.36087 183.882
-22.179899 -1.36139 183.952
-22.1471 -1.3615201 183.96899
-22.119801 -1.36199 184.033
-22.0837 -1.36192 184.02299
-22.052299 -1.3621401 184.052
-22.018299 -1.36219 184.06
-21.9841 -1.36224 184.06599
-21.9491 -1.3622299 184.065
-21.911699 -1.36208 184.045
-21.878799 -1.36221 184.062
-21.844299 -1.3622299 184.065
-21.8081 -1.36215 184.05499
-21.7801 -1.3625799 184.11301
-21.7479 -1.3627599 184.136
-21.715599 -1.36292 184.159
-21.6919 -1.3636301 184.254
-21.6507 -1.36323 184.201
-21.495001 -1.36444 184.364
-21.4571 -1.36426 184.339
-21.420799 -1.36418 184.328
-21.388 -1.36431 184.347
-21.362101 -1.36489 184.425
-21.3234 -1.36465 184.39301
-21.282101 -1.3642499 184.338
-21.252399 -1.36459 184.384
-21.2244 -1.3650399 184.444
-21.1947 -1.36538 184.491
-21.169001 -1.36598 184.57201
-21.0965 -1.3658201 184.55099
-21.059401 -1.36568 184.532
-21.021299 -1.36549 184.506
-20.9881 -1.3656 184.521
-20.953501 -1.36563 184.52499
-20.816401 -1.3658201 184.55099
-20.7824 -1.36589 184.56
-20.7421 -1.36554 184.513
-20.706499 -1.36551 184.508
-20.680599 -1.3661 184.589
-20.534 -1.36568 184.53101
-20.495899 -1.3654701 184.50301
-20.4671 -1.36589 184.55901
-20.429701 -1.36572 184.537
-20.3906 -1.36545 184.5
-20.355301 -1.36543 184.498
-20.321699 -1.36553 184.511
-20.287701 -1.36559 184.519
-20.249701 -1.3653899 184.492
-20.2279 -1.36628 184.61301
-20.1901 -1.3660901 184.58701
-20.1595 -1.3664 184.62801
-20.126301 -1.36652 184.645
-20.085699 -1.36614 184.59399
-20.061001 -1.36684 184.689
-20.027901 -1.36698 184.70599
-19.9881 -1.36665 184.66299
-19.9489 -1.36637 184.62399
-19.9079 -1.36596 184.569
-19.875099 -1.36611 184.59
-19.8398 -1.3660901 184.58701
-19.8025 -1.36593 184.56599
-19.7715 -1.36621 184.603
-19.7342 -1.36606 184.582
-19.696301 -1.36586 184.55499
-19.656799 -1.36555 184.513
-19.6182 -1.36529 184.479
-19.587099 -1.3655699 184.51601
-19.555901 -1.3658299 184.552
-19.522301 -1.36593 184.565
-19.4837 -1.36568 184.53101
-19.440399 -1.3651 184.453
-19.4035 -1.36496 184.43401
-19.370399 -1.3651 184.453
-19.3295 -1.3646801 184.397
-19.2896 -1.3643301 184.349
-19.256201 -1.36444 184.364
-19.222799 -1.36456 184.379
-19.1887 -1.36462 184.388
-19.1562 -1.3648 184.412
-19.120399 -1.36474 184.405
-19.0847 -1.3646899 184.39799
-19.048901 -1.36463 184.39
-19.0119 -1.36449 184.37
-18.9786 -1.36461 184.38699
-18.9431 -1.36457 184.381
-18.876699 -1.36483 184.416
-18.740801 -1.3651299 184.457
-18.7033 -1.36494 184.43201
-18.666201 -1.36479 184.411
-18.629801 -1.3646899 184.397
-18.594999 -1.3647 184.399
-18.565701 -1.3651201 184.45599
-18.493401 -1.3649499 184.433
-18.459 -1.36499 184.439
-18.4209 -1.36476 184.408
-18.3827 -1.36452 184.375
-18.349199 -1.36463 184.39
-18.3165 -1.36481 184.41299
-18.2824 -1.36487 184.422
-18.253401 -1.36532 184.483
-18.2248 -1.3658 184.548
-18.1901 -1.3658299 184.55099
-18.1168 -1.36558 184.517
-18.0784 -1.36532 184.483
-18.042601 -1.36526 184.47501
-18.01 -1.36544 184.49899
-17.978701 -1.36572 184.537
-17.9454 -1.36585 184.55499
-17.9074 -1.36563 184.524
-17.8741 -1.36576 184.54201
-17.8442 -1.36615 184.595
-17.7773 -1.36639 184.62801
-17.746401 -1.3667099 184.67101
-17.7127 -1.36681 184.685
-17.6761 -1.3667001 184.66901
-17.643499 -1.3668801 184.69299
-17.6182 -1.36764 184.79601
-17.583599 -1.36768 184.80099
-17.554899 -1.36817 184.868
-17.5187 -1.36808 184.856
-17.4827 -1.36801 184.847
-17.4624 -1.36917 185.00301
-17.430201 -1.3694 185.034
-17.390301 -1.36902 184.983
-17.355301 -1.36902 184.983
-17.326401 -1.3695199 185.05
-17.2904 -1.36945 185.041
