ply
format ascii 1.0
comment PCL generated
element vertex 1719
property float x
property float y
property float z
element camera 0
property float view_px
property float view_py
property float view_pz
property float x_axisx
property float x_axisy
property float x_axisz
property float y_axisx
property float y_axisy
property float y_axisz
property float z_axisx
property float z_axisy
property float z_axisz
property float focal
property float scalex
property float scaley
property float centerx
property float centery
property int viewportx
property int viewporty
property float k1
property float k2
end_header
-19.157801 3.8524799 184.092
-19.093399 3.85357 184.144
-19.0529 3.8524499 184.091
-19.018801 3.8526199 184.099
-18.9851 3.85287 184.11
-18.887699 3.8543701 184.18201
-18.8487 3.8535399 184.14301
-18.767599 3.8512399 184.033
-18.712601 3.8543 184.179
-18.6714 3.8529999 184.117
-18.627899 3.8512299 184.032
-18.424801 3.8525701 184.09599
-18.390301 3.8526599 184.101
-18.3568 3.8529699 184.116
-18.322901 3.8531799 184.125
-18.2882 3.85323 184.12801
-18.2535 3.8532801 184.13
-18.2153 3.8526001 184.09801
-18.1819 3.8529201 184.11301
-18.145901 3.85269 184.10201
-18.007799 3.8605299 184.47701
-17.9629 3.8584199 184.37601
-16.791599 3.94485 188.506
-16.7598 3.9457901 188.55099
-16.6082 3.9437699 188.45399
-16.523199 3.9405701 188.30099
-16.484699 3.9398999 188.269
-16.451099 3.9403999 188.293
-16.409901 3.93909 188.231
-16.3687 3.9377601 188.16701
-16.329901 3.9370201 188.132
-16.2995 3.9383199 188.194
-16.275499 3.9411299 188.328
-16.202299 3.9407201 188.30901
-16.160999 3.9393499 188.243
-16.1222 3.9386001 188.207
-16.092699 3.94014 188.28101
-16.0651 3.9421201 188.37601
-16.027 3.94155 188.34801
-15.9827 3.93944 188.24699
-15.9451 3.9389601 188.22501
-15.9064 3.93822 188.189
-15.8579 3.93505 188.03799
-15.8092 3.9318199 187.883
-15.7593 3.9282701 187.714
-15.7101 3.92488 187.552
-15.6624 3.92185 187.407
-15.4775 3.9110701 186.892
-15.4308 3.9082201 186.756
-15.3818 3.9047599 186.59
-15.3331 3.90137 186.42799
-15.2856 3.8982899 186.28101
-15.2381 3.89518 186.132
-15.1921 3.8924401 186.002
-15.1489 3.8904099 185.905
-15.1035 3.8878 185.78
-15.0571 3.8849399 185.64301
-15.012 3.88238 185.521
-14.9674 3.87995 185.405
-14.9235 3.8776801 185.29601
-14.8835 3.87643 185.23599
-14.845 3.87554 185.194
-14.8041 3.8740201 185.121
-14.7657 3.8731799 185.08099
-14.7255 3.87184 185.017
-14.6843 3.87023 184.94
-14.6423 3.8684101 184.853
-14.601 3.86674 184.774
-14.5601 3.8652201 184.701
-14.5209 3.86411 184.64799
-14.4819 3.86306 184.597
-14.4462 3.86287 184.588
-14.4095 3.8624101 184.567
-14.3721 3.8617699 184.536
-14.3318 3.8603599 184.46899
-14.2913 3.85886 184.397
-14.2519 3.8576801 184.341
-14.2121 3.85637 184.278
-14.1725 3.8550999 184.217
-14.1369 3.8549299 184.209
-14.1032 3.8552599 184.22501
-14.0712 3.85607 184.26401
-14.033 3.85519 184.222
-13.9956 3.8545101 184.189
-13.9536 3.85256 184.09599
-13.9119 3.8507099 184.007
-13.8718 3.8492601 183.938
-13.8332 3.8482299 183.88901
-13.7944 3.8471301 183.836
-13.7576 3.8466101 183.812
-13.7192 3.8456099 183.76401
-13.6838 3.84548 183.757
-13.6523 3.84642 183.80299
-13.6188 3.8468101 183.821
-13.5809 3.8459401 183.77901
-13.544 3.8453701 183.752
-13.5051 3.8442199 183.69701
-13.4737 3.8452101 183.745
-13.4377 3.8448801 183.729
-13.3986 3.8436699 183.67101
-13.3628 3.84339 183.658
-13.3292 3.84374 183.674
-13.2931 3.84339 183.657
-13.261 3.8441899 183.696
-13.2236 3.8434601 183.661
-13.1877 3.8431301 183.645
-13.1482 3.8417699 183.58
-13.1116 3.84126 183.556
-13.0824 3.8429201 183.63499
-13.05 3.8436301 183.66901
-13.0071 3.84126 183.556
-12.9793 3.8433399 183.655
-12.7248 3.8401699 183.504
-12.6515 3.83904 183.45
-12.4561 3.8431799 183.64799
-12.4206 3.8429799 183.638
-12.3563 3.8446801 183.71899
-12.3279 3.8466899 183.815
-12.2985 3.8483901 183.897
-12.2588 3.84689 183.825
-12.1896 3.84706 183.83299
-12.1534 3.8466401 183.813
-12.1201 3.8471401 183.83701
-12.0882 3.8480999 183.883
-12.0534 3.84811 183.883
-12.019 3.84828 183.892
-11.985 3.8485799 183.90601
-11.9508 3.8487899 183.916
-11.9191 3.8498299 183.966
-11.886 3.8504 183.993
-11.8521 3.8507199 184.008
-11.8237 3.85287 184.11
-11.791 3.8536 184.146
-11.7536 3.8527999 184.10699
-11.719 3.85291 184.11301
-11.683 3.85254 184.095
-11.6505 3.8533499 184.134
-11.6173 3.85392 184.161
-11.5861 3.85517 184.22099
-11.5539 3.8560901 184.26401
-11.518 3.8557601 184.24899
-11.4118 3.85534 184.229
-11.3773 3.85549 184.23599
-11.282 3.8587401 184.39101
-11.248 3.8590801 184.407
-11.2121 3.8587699 184.392
-11.1799 3.85976 184.44
-11.1464 3.86026 184.464
-11.1163 3.8619699 184.54601
-11.0834 3.8627 184.58
-11.048 3.86257 184.57401
-11.0146 3.8631499 184.60201
-10.9787 3.8628399 184.58701
-10.944 3.8629601 184.593
-10.9119 3.8639801 184.642
-10.8814 3.8656001 184.71899
-10.8499 3.8668699 184.78
-10.8186 3.8682201 184.84399
-10.7821 3.8676801 184.819
-10.7467 3.86759 184.814
-10.7146 3.8686299 184.864
-10.6817 3.8694401 184.90199
-10.6466 3.8694301 184.90199
-10.6131 3.8700099 184.92999
-10.5803 3.8708301 184.96899
-10.5445 3.8705699 184.95599
-10.5088 3.8703401 184.946
-10.4763 3.8713 184.991
-10.441 3.8712399 184.98801
-10.4092 3.8724799 185.048
-10.379 3.87432 185.136
-10.3437 3.8742199 185.131
-10.3086 3.8742499 185.132
-10.2742 3.8745201 185.145
-10.2405 3.8750601 185.17101
-10.2055 3.8751099 185.174
-10.1734 3.8762801 185.229
-10.1478 3.87993 185.40401
-10.1158 3.88113 185.461
-10.0445 3.88077 185.444
-10.0115 3.8816199 185.485
-9.9755001 3.88132 185.47
-9.93923 3.8808999 185.45
-9.9052896 3.8813901 185.47301
-9.8709803 3.8817401 185.49001
-9.8371096 3.8822601 185.515
-9.8042898 3.8831999 185.56
-9.7712297 3.8840599 185.601
-9.7418604 3.88639 185.71201
-9.7094297 3.8875101 185.76601
-9.6764002 3.8884001 185.80901
-9.6455898 3.8901899 185.894
-9.6101198 3.89011 185.89
-9.5460596 3.89276 186.017
-9.5177498 3.8956201 186.153
-9.4813204 3.89516 186.132
-9.4474497 3.8957601 186.16
-9.41576 3.89726 186.23199
-9.3833399 3.8984699 186.28999
-9.3489704 3.89888 186.30901
-9.3157196 3.89976 186.351
-9.2795095 3.8994 186.334
-9.2476997 3.9008999 186.40601
-9.21488 3.9019799 186.457
-9.1804504 3.90238 186.47701
-9.1458998 3.90274 186.494
-9.1100302 3.90253 186.48399
-9.07516 3.90275 186.494
-9.04041 3.9030199 186.507
-9.0059996 3.90345 186.528
-8.9354 3.9035299 186.53101
-8.8990202 3.9031 186.511
-8.8656797 3.904 186.554
-8.82973 3.90376 186.54201
-8.79251 3.90294 186.504
-8.7550497 3.90202 186.459
-8.7202997 3.9022999 186.47301
-8.6883297 3.9038401 186.54601
-8.6521597 3.9034901 186.52901
-8.6147099 3.90256 186.485
-8.5797701 3.90276 186.494
-8.5475502 3.9042001 186.564
-8.5162401 3.90608 186.653
-8.4812298 3.90626 186.662
-8.4484901 3.9075 186.72099
-8.41401 3.9079499 186.742
-8.3808098 3.9089899 186.79201
-8.3458595 3.90922 186.80299
-8.3102503 3.9091401 186.799
-8.2747402 3.9091101 186.798
-8.2399197 3.9094 186.812
-8.2091198 3.9116199 186.918
-8.1750803 3.9123001 186.95
-8.13867 3.91185 186.929
-8.1026697 3.9115901 186.91701
-8.0298405 3.91067 186.873
-7.9938202 3.9103899 186.86
-7.9594302 3.9109199 186.884
-7.9251599 3.9115 186.912
-7.8557301 3.91225 186.948
-7.8196201 3.9119301 186.933
-7.7848401 3.9122801 186.95
-7.7506599 3.91293 186.981
-7.7165999 3.91365 187.015
-7.6856298 3.9159501 187.125
-7.6525502 3.9171901 187.18401
-7.6185699 3.91798 187.222
-7.57832 3.91554 187.105
-7.5119801 3.9179699 187.222
-7.4758902 3.91768 187.207
-7.44242 3.9187601 187.259
-7.4106202 3.9207301 187.353
-7.3745399 3.92045 187.34
-7.3381701 3.9200101 187.319
-7.3056002 3.9216101 187.395
-7.2727299 3.9230499 187.464
-7.2367101 3.9228101 187.453
-7.1997499 3.92205 187.416
-7.1655698 3.9228101 187.453
-7.12848 3.9219699 187.41299
-7.09162 3.9212501 187.37801
-7.0575299 3.92207 187.41701
-7.0229301 3.9226 187.44299
-6.9861002 3.92189 187.409
-6.9493098 3.9212 187.37601
-6.9189301 3.92413 187.51601
-6.8892899 3.92752 187.67799
-6.85677 3.9292901 187.76199
-6.8208098 3.92909 187.75301
-6.7856398 3.9293599 187.76601
-6.7492199 3.9289 187.744
-6.71456 3.92946 187.771
-6.6806998 3.9305 187.82001
-6.55826 3.9860401 190.474
-6.5188298 3.98403 190.37801
-6.3791199 3.98702 190.521
-6.3428998 3.98698 190.519
-6.3028498 3.9845099 190.401
-6.2641501 3.9828801 190.323
-6.2242999 3.98049 190.209
-6.1977401 3.9866199 190.502
-6.1645699 3.9885399 190.59399
-6.1266198 3.98738 190.539
-6.08814 3.9858601 190.466
-6.0536599 3.9869499 190.51801
-6.01967 3.98838 190.586
-5.98421 3.9888501 190.608
-5.90871 3.9867101 190.506
-5.8749299 3.9883201 190.58299
-5.8392301 3.9886301 190.59801
-5.7365098 3.99266 190.78999
-24.9072 3.9744 188.20799
-24.865 3.9733601 188.159
-24.811701 3.97054 188.026
-24.7621 3.9683199 187.92
-24.7267 3.96837 187.923
-24.687401 3.9677701 187.894
-24.6404 3.96594 187.808
-24.548 3.9625299 187.646
-24.5042 3.96122 187.584
-24.4715 3.9616799 187.606
-24.4391 3.9621999 187.631
-24.4093 3.96314 187.675
-24.367201 3.96209 187.625
-24.3225 3.9606099 187.55499
-24.279499 3.9593899 187.49699
-21.5266 3.9180801 185.541
-21.481701 3.9163201 185.45799
-21.4443 3.91591 185.438
-21.4086 3.9158199 185.43401
-21.376801 3.91644 185.463
-21.3435 3.91678 185.48
-21.306601 3.91646 185.465
-21.2703 3.91627 185.455
-21.2293 3.9152 185.405
-21.190001 3.9144399 185.369
-21.1481 3.9131801 185.30901
-21.107401 3.9121699 185.261
-21.0769 3.9130199 185.302
-21.0364 3.91204 185.255
-20.989201 3.90979 185.14799
-20.946301 3.90834 185.08
-20.909599 3.90804 185.06599
-20.825399 3.91202 185.254
-20.770201 3.9082401 185.075
-20.724701 3.90628 184.983
-20.684799 3.90539 184.94
-20.6453 3.9045401 184.89999
-20.608601 3.9042399 184.886
-20.572399 3.9040301 184.87601
-20.5397 3.90449 184.897
-20.442101 3.9059501 184.967
-20.3874 3.90219 184.789
-20.3472 3.90119 184.741
-20.3104 3.9008701 184.726
-20.2752 3.90084 184.72501
-20.1898 3.8978901 184.58501
-20.1633 3.8995399 184.66299
-20.127399 3.8993599 184.655
-20.085899 3.8980999 184.595
-20.0464 3.8972499 184.55499
-20.004101 3.8958299 184.487
-19.9345 3.89591 184.491
-19.9009 3.8961799 184.504
-19.863701 3.89574 184.483
-19.8297 3.8959401 184.493
-19.7577 3.89555 184.474
-19.677299 3.8934901 184.377
-19.641701 3.8933699 184.371
-19.604099 3.8928599 184.347
-19.347601 3.8905101 184.23599
-19.3099 3.8899601 184.209
-19.2726 3.8894899 184.187
-19.210199 3.891 184.259
-19.173901 3.8907399 184.24699
-19.138901 3.8907299 184.246
-19.099501 3.8898201 184.203
-19.055799 3.8880401 184.118
-19.0264 3.8891599 184.172
-18.965799 3.8910799 184.263
-18.9305 3.89101 184.259
-18.8918 3.89024 184.22301
-18.8536 3.88956 184.19099
-18.815201 3.88886 184.157
-18.7817 3.8891399 184.17101
-18.7458 3.8889501 184.162
-18.7078 3.88831 184.131
-18.6717 3.8880799 184.121
-18.406 3.89098 184.258
-18.3724 3.8912799 184.272
-18.3351 3.89078 184.248
-18.300699 3.8908899 184.254
-18.2626 3.89024 184.22301
-17.981199 3.8974199 184.563
-16.8664 3.9814601 188.543
-16.7868 3.9795499 188.452
-16.747499 3.9787199 188.41299
-16.7164 3.97982 188.465
-16.683001 3.9803901 188.492
-16.645399 3.97996 188.47099
-16.607599 3.97946 188.448
-16.565599 3.9779601 188.377
-16.521601 3.97597 188.283
-16.480101 3.9745901 188.217
-16.4443 3.97455 188.215
-16.405701 3.97386 188.18201
-16.3654 3.9727499 188.13
-16.295 3.97299 188.14101
-16.271099 3.9758699 188.278
-16.2404 3.9770899 188.336
-16.205999 3.9774301 188.35201
-16.164 3.9758799 188.278
-16.125099 3.9751201 188.242
-16.096399 3.97685 188.32401
-16.068399 3.97876 188.41499
-16.031099 3.97837 188.396
-15.9893 3.9768701 188.325
-15.9485 3.97559 188.265
-15.9071 3.97418 188.198
-15.8599 3.9713099 188.062
-15.812 3.96823 187.916
-15.7622 3.96468 187.748
-15.7132 3.9613099 187.588
-15.6653 3.95821 187.442
-15.2074 3.9317701 186.189
-15.1573 3.9279399 186.008
-15.1073 3.9241199 185.827
-15.0601 3.92102 185.67999
-15.0139 3.91816 185.545
-14.9678 3.9152999 185.409
-14.9228 3.91272 185.287
-14.8833 3.9115801 185.233
-14.8482 3.9115801 185.233
-14.8074 3.9101 185.16299
-14.7678 3.90891 185.10699
-14.7256 3.9070499 185.019
-14.6821 3.90482 184.91299
-14.6408 3.9031501 184.834
-14.6015 3.90203 184.78101
-14.5618 3.90078 184.722
-14.5222 3.89955 184.664
-14.4828 3.8983901 184.60899
-14.4464 3.89801 184.591
-14.4081 3.89714 184.549
-14.3717 3.89674 184.53101
-14.3326 3.8956499 184.479
-14.2934 3.89449 184.424
-14.2557 3.89375 184.38901
-14.2143 3.8919899 184.306
-14.1751 3.8908401 184.25101
-14.1392 3.8905799 184.239
-14.1025 3.89009 184.216
-14.0688 3.89046 184.233
-14.0311 3.8896999 184.19701
-13.9929 3.8887899 184.15401
-13.9533 3.88748 184.092
-13.9129 3.8859501 184.02
-13.8717 3.8842001 183.937
-13.835 3.8836801 183.912
-13.7971 3.8828499 183.873
-13.7612 3.88257 183.85899
-13.7252 3.8822601 183.845
-13.6892 3.8819201 183.82899
-13.6546 3.88203 183.834
-13.6204 3.88222 183.843
-13.5814 3.8810201 183.786
-13.5447 3.8805101 183.76199
-13.5044 3.8789501 183.688
-13.4733 3.8800199 183.739
-13.44 3.8804801 183.761
-13.4063 3.88082 183.77699
-13.3698 3.8803401 183.754
-13.3328 3.87972 183.72501
-13.2964 3.8792801 183.70399
-13.2598 3.8787501 183.679
-13.2226 3.8780799 183.647
-13.1825 3.8765299 183.57401
-13.1528 3.8780401 183.645
-13.1144 3.8769901 183.595
-13.0783 3.87661 183.577
-13.0479 3.8779299 183.64
-13.0091 3.87676 183.584
-12.9806 3.87865 183.674
-12.9433 3.8779199 183.64
-12.9059 3.8771601 183.603
-12.7286 3.8762 183.558
-12.6926 3.8758399 183.541
-12.415 3.8761599 183.556
-12.3575 3.8799701 183.737
-12.3262 3.8810899 183.789
-12.2953 3.88234 183.849
-12.2583 3.88166 183.817
-12.2201 3.88062 183.767
-12.1894 3.8819599 183.83099
-12.1554 3.8822401 183.84399
-12.1209 3.88234 183.849
-12.0872 3.88274 183.867
-12.0513 3.8824 183.85201
-12.0175 3.8827701 183.869
-11.986 3.8838401 183.92
-11.9532 3.8845301 183.952
-11.9189 3.8847201 183.961
-11.885 3.8850501 183.97701
-11.8483 3.88447 183.95
-11.7866 3.88714 184.076
-11.7508 3.8868599 184.063
-11.7178 3.8875101 184.093
-11.6143 3.8879499 184.114
-11.5802 3.8882101 184.127
-11.5465 3.8886299 184.147
-11.5117 3.88867 184.149
-11.4766 3.8886299 184.146
-11.4441 3.8894601 184.186
-11.4098 3.8896899 184.19701
-11.3772 3.89048 184.23399
-11.3435 3.8908899 184.254
-11.282 3.8938 184.39101
-11.2459 3.89342 184.373
-11.2117 3.8936999 184.386
-11.1819 3.8954899 184.472
-11.1465 3.89536 184.465
-11.1127 3.8958001 184.48599
-11.0785 3.89608 184.49899
-11.0434 3.89604 184.49699
-10.9781 3.8977101 184.577
-10.9456 3.8986299 184.62
-10.9132 3.89956 184.664
-10.8816 3.90078 184.722
-10.8496 3.90189 184.774
-10.8158 3.9023299 184.795
-10.7785 3.90153 184.757
-10.7131 3.9032199 184.838
-10.6798 3.9038999 184.87
-10.647 3.9047401 184.909
-10.6137 3.90539 184.94
-10.5801 3.90591 184.965
-10.5468 3.9066 184.998
-10.5111 3.9063799 184.987
-10.4772 3.90681 185.008
-10.4426 3.9070201 185.017
-10.4103 3.9080501 185.06599
-10.3776 3.9089799 185.11
-10.3425 3.9089799 185.11
-10.3091 3.9096401 185.142
-10.2756 3.9102499 185.17
-10.2437 3.91149 185.229
-10.2086 3.91152 185.23
-10.1733 3.9114599 185.228
-10.1418 3.9128699 185.29401
-10.1106 3.9143901 185.366
-10.0785 3.91558 185.423
-10.0448 3.9161501 185.45
-10.0116 3.91695 185.48801
-9.9379396 3.9156499 185.42599
-9.9016199 3.9152 185.405
-9.8673096 3.91554 185.42101
-9.83529 3.9168 185.481
-9.8034201 3.9181299 185.543
-9.7723703 3.9198 185.62199
-9.7424498 3.9219301 185.724
-9.7098398 3.9230001 185.774
-9.6752701 3.92327 185.787
-9.6419401 3.9240501 185.82401
-9.6088495 3.9249401 185.866
-9.5749903 3.9255099 185.89301
-9.5443401 3.9274199 185.983
-9.5114403 3.9284 186.03
-9.4766798 3.9286301 186.041
-9.4454699 3.93033 186.121
-9.4141998 3.9320199 186.201
-9.3827295 3.93363 186.278
-9.3473196 3.93361 186.27699
-9.2814102 3.9356301 186.37199
-9.2495899 3.93714 186.444
-9.2144098 3.9372301 186.448
-9.1777401 3.9366701 186.422
-9.1410503 3.9361 186.395
-9.10499 3.9358001 186.38
-9.0360098 3.9365699 186.41701
-9.0008402 3.93665 186.42101
-8.9681702 3.93784 186.47701
-8.9327898 3.93784 186.47701
-8.8951902 3.9368601 186.431
-8.8627005 3.9381399 186.491
-8.8277998 3.93836 186.50101
-8.7920599 3.9382 186.494
-8.7554998 3.93767 186.46899
-8.7186403 3.937 186.437
-8.6843596 3.9375 186.461
-8.6493702 3.93768 186.46899
-8.5766497 3.93678 186.427
-8.5442495 3.9381499 186.492
-8.5128403 3.93999 186.57899
-8.4794903 3.9409399 186.62399
-8.4091702 3.94118 186.63499
-8.37924 3.9437599 186.757
-8.34484 3.9442501 186.78
-8.3089705 3.9440401 186.771
-8.2726898 3.94364 186.752
-8.2392702 3.9446101 186.797
-8.2080202 3.94662 186.89301
-8.1736698 3.94716 186.918
-8.1042805 3.9479101 186.95399
-8.0696802 3.9483399 186.974
-8.0324297 3.9474699 186.933
-7.9956899 3.94684 186.903
-7.96205 3.9477501 186.946
-7.9303899 3.94965 187.036
-7.8947601 3.9495699 187.032
-7.8582501 3.94906 187.008
-7.8226299 3.9489901 187.005
-7.7888298 3.9498401 187.045
-7.7529101 3.94963 187.035
-7.7181201 3.94998 187.052
-7.6536999 3.9533701 187.21201
-7.6184902 3.9535401 187.22
-7.5773101 3.9505799 187.08
-7.5431299 3.9512801 187.11301
-7.5099101 3.9524801 187.17
-7.4741998 3.9523799 187.16499
-7.44486 3.9556501 187.32001
-7.4133101 3.9577799 187.42101
-7.3779101 3.95787 187.425
-7.3435402 3.9585099 187.45599
-7.3063698 3.9576499 187.41499
-7.2709098 3.9577 187.418
-7.2360902 3.9581101 187.437
-7.1989698 3.9572501 187.396
-7.16468 3.9579501 187.429
-7.12782 3.9572301 187.395
-7.0908899 3.95647 187.35899
-7.05545 3.9565301 187.362
-7.02353 3.95858 187.459
-6.9883399 3.9587901 187.46899
-6.9527602 3.9587801 187.46899
-6.9200602 3.9604299 187.54601
-6.8906202 3.9639599 187.714
-6.85429 3.9635501 187.69501
-6.8185301 3.96347 187.69099
-6.78547 3.9649601 187.761
-6.7479601 3.96385 187.709
-6.70999 3.96246 187.64301
-6.6785402 3.9649301 187.75999
-6.6510801 3.9698 187.99001
-6.5159001 4.0184202 190.293
-6.2683001 4.0217199 190.44901
-6.2302098 4.0204601 190.38901
-6.1959801 4.0216999 190.448
-6.1621099 4.02317 190.51801
-6.1254001 4.0228 190.5
-6.0897799 4.02315 190.517
-6.0573702 4.02564 190.63499
-6.0213299 4.0257201 190.63901
-5.9855399 4.02599 190.651
-5.9479699 4.0250401 190.606
-5.9105301 4.0241699 190.565
-25.2255 4.0096898 188.185
-24.853399 4.0072598 188.071
-24.816999 4.0071602 188.06599
-24.7791 4.0068002 188.05
-24.7362 4.00562 187.994
-24.6896 4.00385 187.911
-24.6434 4.00214 187.83099
-24.5958 4.0001898 187.739
-24.549299 3.99842 187.65601
-24.5098 3.9977901 187.627
-24.473 3.9976001 187.618
-24.4401 3.9980299 187.638
-24.412901 3.9994099 187.703
-24.3759 3.9991901 187.692
-24.3437 3.9997399 187.718
-24.293501 3.99735 187.606
-24.1196 3.9862499 187.08501
-24.077499 3.9851601 187.034
-21.470501 3.9560001 185.66499
-21.4203 3.9532299 185.535
-21.3932 3.95474 185.606
-21.362101 3.9554801 185.64101
-21.3172 3.9537001 185.558
-21.276199 3.95262 185.506
-21.2341 3.9513299 185.446
-21.194901 3.9505799 185.411
-21.151899 3.9491401 185.343
-21.1127 3.94838 185.30701
-21.042101 3.9483199 185.30499
-20.9958 3.9462299 185.207
-20.9592 3.94595 185.194
-20.742201 3.9447899 185.13901
-20.358601 3.93853 184.845
-20.243 3.9365201 184.75101
-20.164801 3.9349201 184.67599
-20.127701 3.93453 184.658
-20.0879 3.93361 184.614
-20.045099 3.93207 184.54201
-20.0072 3.9315 184.51601
-19.973801 3.9318199 184.53
-19.932199 3.9305301 184.47
-19.906401 3.9323399 184.55499
-19.845501 3.93416 184.64
-19.7246 3.931 184.492
-19.687799 3.93064 184.47501
-19.652901 3.93066 184.476
-19.5728 3.9286499 184.382
-19.534901 3.9280601 184.354
-19.4965 3.9273601 184.321
-19.4627 3.9276099 184.33299
-19.4142 3.92488 184.205
-19.316999 3.92642 184.27699
-19.2777 3.92555 184.23599
-19.243601 3.92571 184.244
-19.2232 3.9287 184.384
-19.140699 3.92611 184.263
-19.100201 3.9249899 184.21001
-19.059999 3.9238999 184.159
-18.9772 3.9284699 184.373
-18.934 3.92676 184.293
-18.897499 3.92644 184.278
-18.8617 3.92627 184.27
-18.7495 3.9247401 184.198
-18.7103 3.92384 184.15601
-18.6814 3.9251201 184.216
-18.645201 3.92485 184.203
-18.6052 3.92379 184.153
-18.5411 3.92502 184.21201
-18.506001 3.9249799 184.209
-18.4715 3.9250901 184.215
-18.443501 3.9265599 184.284
-18.4209 3.9292099 184.408
-18.386 3.92923 184.409
-18.272301 3.92734 184.32001
-18.234501 3.9267299 184.29201
-16.8598 4.0157499 188.46899
-16.835501 4.0184698 188.597
-16.7883 4.0157399 188.46899
-16.7488 4.0148501 188.427
-16.642401 4.0150499 188.436
-16.608101 4.0154099 188.45399
-16.562901 4.0131202 188.34599
-16.5196 4.0112801 188.25999
-16.478901 4.0100799 188.203
-16.441 4.0095401 188.17799
-16.404499 4.0093498 188.16901
-16.363701 4.0081 188.11
-16.3235 4.00699 188.058
-16.2973 4.0093098 188.16701
-16.2686 4.0110502 188.24899
-16.241501 4.0131798 188.349
-16.205099 4.01302 188.341
-16.0683 4.0145502 188.41299
-16.0322 4.0144701 188.41
-15.9883 4.0124202 188.313
-15.9446 4.0104198 188.21899
-14.8844 3.9470999 185.24699
-14.8508 3.9475 185.26601
-14.8069 3.9451599 185.157
-14.7668 3.94384 185.095
-14.7259 3.9422901 185.022
-14.6828 3.94014 184.92101
-14.6405 3.93821 184.83099
-14.5991 3.9364901 184.75
-14.5578 3.9348099 184.67101
-14.5196 3.9339499 184.63
-14.4814 3.93311 184.591
-14.4449 3.9326999 184.57201
-14.4065 3.9317701 184.528
-14.373 3.9322 184.548
-14.3354 3.9314799 184.51401
-14.2958 3.9302101 184.455
-14.2567 3.9291 184.403
-14.2163 3.9276099 184.33299
-14.1771 3.92644 184.278
-14.1419 3.9263599 184.274
-14.1048 3.92577 184.24699
-14.0699 3.9257901 184.24699
-14.0317 3.92488 184.205
-13.997 3.9249401 184.20799
-13.9574 3.92362 184.146
-13.9135 3.9211199 184.028
-13.8734 3.9196501 183.959
-13.835 3.9186599 183.91299
-13.7936 3.9168 183.826
-13.761 3.91745 183.856
-13.7249 3.91713 183.841
-13.6893 3.9169099 183.83099
-13.6561 3.9174099 183.854
-13.6192 3.91681 183.826
-13.5825 3.91628 183.80099
-13.5488 3.91661 183.817
-13.5087 3.9151199 183.74699
-13.4735 3.91502 183.742
-13.4376 3.9147301 183.728
-13.4039 3.91504 183.743
-13.3667 3.9143701 183.71201
-13.3283 3.9133301 183.662
-13.2928 3.91313 183.653
-13.2619 3.91431 183.709
-13.2226 3.9130001 183.647
-13.1536 3.9131999 183.65601
-13.1153 3.9121599 183.608
-13.0775 3.9112899 183.567
-13.0121 3.91257 183.627
-12.983 3.91429 183.70799
-12.9448 3.91327 183.66
-12.9035 3.91133 183.569
-12.7351 3.91309 183.651
-12.6616 3.9119101 183.59599
-12.2943 3.91699 183.834
-12.2603 3.9172699 183.84801
-12.1872 3.9161999 183.797
-12.1569 3.91765 183.866
-12.1236 3.91819 183.89101
-12.0886 3.91816 183.88901
-12.0518 3.91752 183.85899
-12.017 3.9175401 183.86
-11.985 3.9184899 183.905
-11.952 3.9191101 183.93401
-11.9172 3.9191599 183.936
-11.8815 3.91887 183.923
-11.8434 3.91784 183.87399
-11.8146 3.9198301 183.968
-11.7855 3.9217801 184.05901
-11.7492 3.9212999 184.037
-11.7149 3.92152 184.047
-11.6819 3.9221699 184.078
-11.6458 3.9217801 184.05901
-11.6127 3.92239 184.088
-11.5788 3.92276 184.105
-11.5445 3.92295 184.114
-11.5089 3.92274 184.104
-11.473 3.92241 184.089
-11.4087 3.92433 184.179
-11.376 3.9251001 184.215
-11.3396 3.9245999 184.192
-11.3028 3.92395 184.161
-11.2422 3.9271901 184.313
-11.2085 3.9276299 184.334
-11.1768 3.9287701 184.38699
-11.1432 3.92926 184.41
-11.1109 3.9302199 184.45599
-11.0773 3.9307201 184.479
-11.0433 3.9310701 184.495
-11.0087 3.93121 184.502
-10.9735 3.93116 184.5
-10.943 3.93277 184.575
-10.9096 3.9333701 184.603
-10.8754 3.93364 184.616
-10.8453 3.93543 184.7
-10.8149 3.93715 184.78101
-10.7791 3.9368701 184.76801
-10.7435 3.9366901 184.759
-10.7121 3.938 184.821
-10.6783 3.9384899 184.843
-10.6494 3.9407599 184.95
-10.6135 3.94045 184.935
-10.576 3.9395599 184.894
-10.5442 3.9407899 184.951
-10.5101 3.94118 184.97
-10.4763 3.9416599 184.992
-10.4435 3.9425299 185.033
-10.4102 3.9432001 185.064
-10.376 3.9435599 185.082
-10.3399 3.9432001 185.064
-10.3058 3.9435699 185.082
-10.2729 3.9444301 185.12199
-10.2418 3.9459801 185.19501
-10.208 3.9465101 185.22
-10.1729 3.94649 185.21899
-10.1416 3.9479899 185.289
-10.1114 3.94995 185.381
-10.0762 3.94995 185.381
-10.0393 3.94926 185.349
-10.0061 3.9500501 185.386
-9.9714699 3.9502399 185.395
-9.9348097 3.9496601 185.368
-9.9002199 3.9498899 185.37801
-9.8690596 3.9514999 185.45399
-9.8373804 3.9529099 185.52
-9.8059301 3.9544201 185.591
-9.7426796 3.95733 185.728
-9.7102203 3.9584701 185.78101
-9.67591 3.9588499 185.799
-9.6419802 3.9593999 185.825
-9.6093798 3.96049 185.87601
-9.5742397 3.9605501 185.879
-9.5420799 3.9618399 185.939
-9.5115204 3.9638 186.032
-9.4784803 3.9647501 186.076
-9.44631 3.9660699 186.138
-9.4115 3.96628 186.14799
-9.3801403 3.9679599 186.226
-9.34688 3.9688399 186.26801
-9.2785597 3.9698501 186.315
-9.2446003 3.9704499 186.343
-9.2094898 3.9705501 186.34801
-9.1004496 3.96926 186.28799
-9.0674295 3.9702799 186.33501
-8.9310198 3.9725101 186.44
-8.8946104 3.97205 186.418
-8.8617496 3.97317 186.47099
-8.8260403 3.9730201 186.464
-8.79076 3.9730699 186.466
-8.7551298 3.97296 186.461
-8.71875 3.9725001 186.44
-8.6841297 3.9728501 186.45599
-8.64956 3.9732201 186.47301
-8.6130304 3.9726901 186.44901
-8.5770998 3.97243 186.436
-8.54389 3.9734399 186.48399
-8.5101995 3.9742301 186.521
-8.4752102 3.9744201 186.53
-8.4412098 3.97507 186.56
-8.4086599 3.9764199 186.62399
-8.3738203 3.9766901 186.636
-8.3401699 3.97753 186.67599
-8.3070803 3.9786501 186.728
-8.2727299 3.9791701 186.75301
-8.2383204 3.97966 186.776
-8.2028503 3.97965 186.77499
-8.1677704 3.97982 186.783
-8.1333103 3.9802999 186.806
-8.1026402 3.98265 186.916
-8.0679197 3.9830201 186.933
-8.0292196 3.98142 186.858
-7.9621501 3.98334 186.948
-7.9286699 3.98434 186.995
-7.8936501 3.98457 187.006
-7.8574901 3.98423 186.99001
-7.8222499 3.98435 186.996
-7.7881598 3.98506 187.02901
-7.7547998 3.98616 187.08099
-7.7182002 3.98559 187.054
-7.6834402 3.98597 187.07201
-7.6523199 3.98825 187.179
-7.5764899 3.9857199 187.06
-7.5433002 3.9869399 187.117
-7.5084801 3.9872999 187.134
-7.4439602 3.9907801 187.298
-7.4106102 3.99196 187.353
-7.3773298 3.9931901 187.411
-7.34447 3.9946599 187.48
-7.3048301 3.99244 187.37601
-7.2688799 3.9922199 187.36501
-7.2340999 3.99264 187.38499
-7.19946 3.99315 187.409
-7.1649599 3.9937401 187.437
-7.1291499 3.9936099 187.42999
-7.0908499 3.99207 187.358
-7.05408 3.99138 187.326
-7.02211 3.9934101 187.42101
-6.9872599 3.9938099 187.44
-6.9528799 3.9944999 187.472
-6.9197798 3.9959199 187.539
-6.88941 3.99895 187.681
-6.8534198 3.9987299 187.67101
-6.8164501 3.99793 187.633
-6.7831602 3.99929 187.69701
-6.7477002 3.9993801 187.701
-6.7153201 4.0013099 187.79201
-6.6816401 4.00248 187.847
-6.6531501 4.0067902 188.049
-6.47823 4.0536299 190.24699
-6.1522598 4.0529099 190.213
-6.1247301 4.0585799 190.48
-6.0943899 4.0624399 190.661
-6.0557299 4.06078 190.58299
-6.0201802 4.0611901 190.60201
-5.98351 4.0608501 190.586
-5.9505901 4.0630598 190.69
-24.996 4.0430002 188.07001
-24.951 4.0414901 188
-24.9091 4.0404902 187.953
-24.8738 4.0405402 187.95599
-24.858801 4.0439 188.112
-24.8195 4.0433202 188.08501
-24.778099 4.0423899 188.04201
-24.7365 4.04142 187.99699
-24.6903 4.0397 187.91701
-24.649799 4.0388999 187.88
-24.6035 4.0371499 187.798
-24.557899 4.0355201 187.722
-24.5215 4.0353799 187.716
-24.485901 4.0353899 187.716
-24.4533 4.0358901 187.74001
-24.4102 4.0346498 187.68201
-24.371599 4.0341501 187.659
-24.3375 4.03441 187.67101
-24.294901 4.0332398 187.616
-24.251801 4.0320001 187.558
-24.2066 4.0303898 187.48399
-24.1175 4.02741 187.345
-21.4144 3.9939699 185.78999
-21.372801 3.99279 185.73399
-21.3258 3.9905801 185.632
-21.2836 3.98928 185.57201
-21.239401 3.9875801 185.493
-21.1968 3.9861901 185.42799
-21.1241 3.98575 185.407
-21.090799 3.98612 185.424
-21.045401 3.98417 185.334
-21 3.98224 185.244
-20.3657 3.97507 184.91
-20.327499 3.9744401 184.881
-20.2929 3.97454 184.886
-20.250099 3.9730301 184.815
-20.209299 3.97189 184.763
-20.1742 3.97189 184.76199
-20.0532 3.96876 184.617
-20.02 3.96913 184.634
-19.9788 3.96789 184.577
-19.913 3.96874 184.616
-19.8459 3.9693401 184.644
-19.818199 3.9707999 184.71201
-19.7796 3.9700999 184.679
-19.697901 3.9677601 184.57001
-19.657 3.9665599 184.515
-19.505199 3.96418 184.40401
-19.4716 3.9644599 184.41701
-19.436399 3.9644101 184.41499
-19.3354 3.96523 184.453
-19.297701 3.96468 184.427
-19.268299 3.9658201 184.48
-19.233101 3.96579 184.479
-19.1133 3.9627199 184.336
-18.906 3.9632599 184.36099
-18.870899 3.9632399 184.36
-18.8335 3.9627199 184.336
-18.797199 3.96244 184.323
-18.762501 3.9625101 184.326
-18.723499 3.9616499 184.286
-18.652 3.9613199 184.271
-18.611601 3.96017 184.217
-18.5812 3.9611299 184.26199
-18.511801 3.9612501 184.26801
-18.4764 3.9611599 184.263
-18.3244 3.96609 184.492
-16.8897 4.0501699 188.40401
-16.8557 4.05059 188.423
-16.8228 4.05128 188.45599
-16.783501 4.0504098 188.41499
-16.746401 4.0500898 188.39999
-16.558399 4.0478201 188.29401
-16.5152 4.04601 188.21001
-16.476 4.0451498 188.17101
-16.438999 4.0448098 188.155
-16.405199 4.0453 188.177
-16.365801 4.0443702 188.134
-16.3274 4.0437198 188.104
-16.3009 4.04599 188.21001
-16.267099 4.0464602 188.231
-16.2376 4.0480099 188.30299
-16.1987 4.0472298 188.267
-16.1658 4.0479298 188.299
-16.1378 4.04987 188.39
-16.102301 4.0499301 188.39301
-16.0737 4.0517201 188.476
-16.0352 4.0510302 188.444
-15.9886 4.0482998 188.317
-15.9464 4.0466499 188.24001
-14.8822 3.98171 185.21899
-14.8463 3.9815099 185.21001
-14.7655 3.9786799 185.078
-14.7265 3.9776199 185.02901
-14.6839 3.97559 184.935
-14.6418 3.9737201 184.847
-14.5983 3.9714 184.74001
-14.5559 3.9693999 184.647
-14.5185 3.96877 184.617
-14.4819 3.9683399 184.597
-14.4449 3.9677899 184.57201
-14.4066 3.9668901 184.53
-14.3716 3.9668801 184.53
-14.3368 3.9669499 184.533
-14.2987 3.96609 184.493
-14.2588 3.96474 184.42999
-14.2182 3.96316 184.356
-14.1777 3.9616301 184.285
-14.1411 3.96117 184.26401
-14.102 3.9600101 184.21001
-14.0673 3.9600799 184.213
-14.0325 3.96012 184.215
-13.9994 3.96066 184.24001
-13.9579 3.9587901 184.153
-13.9153 3.9566 184.05099
-13.8751 3.9551001 183.98199
-13.8367 3.9540999 183.935
-13.7956 3.9523399 183.853
-13.7613 3.9525199 183.86099
-13.7216 3.9511299 183.797
-13.6877 3.95139 183.80901
-13.6565 3.9524701 183.85899
-13.6158 3.9507899 183.78101
-13.5798 3.9504399 183.76401
-13.5489 3.9515901 183.81799
-13.5125 3.9511499 183.798
-13.4759 3.95064 183.774
-13.439 3.9500501 183.74699
-13.4049 3.95028 183.757
-13.3657 3.9489901 183.69701
-13.3274 3.9479799 183.64999
-13.2908 3.9474499 183.625
-13.2593 3.9484601 183.673
-13.2207 3.94733 183.62
-13.1544 3.9483399 183.66701
-13.1163 3.9473801 183.62199
-13.0825 3.9477 183.63699
-13.048 3.9477999 183.642
-13.016 3.9486499 183.681
-12.9773 3.94749 183.627
-12.9441 3.9479899 183.651
-12.9037 3.94627 183.571
-12.8689 3.9463 183.57201
-12.8311 3.94539 183.53
-12.7648 3.94642 183.578
-12.7297 3.9463401 183.57401
-12.257 3.9511499 183.798
-12.2198 3.9504001 183.763
-12.1885 3.95154 183.81599
-12.1567 3.9525499 183.86301
-12.1226 3.95281 183.875
-12.0887 3.95314 183.89
-12.0511 3.95225 183.849
-12.0144 3.9516499 183.821
-11.9837 3.9530201 183.88499
-11.952 3.9540801 183.93401
-11.9181 3.9544101 183.94901
-11.8816 3.9539001 183.92599
-11.8444 3.95311 183.88901
-11.8137 3.95451 183.95399
-11.7862 3.95701 184.07001
-11.7499 3.9565499 184.049
-11.7159 3.9568601 184.063
-11.6828 3.95748 184.092
-11.6484 3.9576499 184.10001
-11.6143 3.9579301 184.11301
-11.5773 3.9572301 184.08099
-11.5418 3.95702 184.071
-11.5083 3.95754 184.095
-11.471 3.9567101 184.056
-11.4352 3.9564199 184.043
-11.4059 3.9583399 184.132
-11.3727 3.9589601 184.161
-11.3369 3.9586699 184.14799
-11.3012 3.9584 184.13499
-11.2715 3.9602399 184.22099
-11.2403 3.96156 184.282
-11.2064 3.96193 184.299
-11.1712 3.96187 184.29601
-11.1383 3.96259 184.33
-11.1057 3.9634299 184.369
-11.0737 3.96451 184.41901
-11.0442 3.96649 184.511
-11.0113 3.9672301 184.54601
-10.9746 3.96663 184.51801
-10.9424 3.96766 184.56599
-10.9102 3.9686899 184.61301
-10.8761 3.9690001 184.62801
-10.8437 3.96998 184.674
-10.8141 3.9719801 184.76601
-10.7794 3.9721 184.772
-10.742 3.97124 184.73199
-10.7083 3.97176 184.756
-10.6751 3.97245 184.78799
-10.6458 3.97458 184.888
-10.612 3.97508 184.911
-10.5761 3.97475 184.896
-10.5426 3.9753499 184.923
-10.5093 3.9760201 184.955
-10.4782 3.97756 185.026
-10.4459 3.97861 185.075
-10.409 3.9779201 185.043
-10.3736 3.9778299 185.039
-10.3392 3.9781101 185.052
-10.3064 3.9790001 185.093
-10.2718 3.9791999 185.10201
-10.2381 3.9797201 185.127
-10.2056 3.9807701 185.175
-10.1718 3.9812901 185.2
-10.1416 3.9832399 185.28999
-10.1109 3.9849801 185.371
-10.0746 3.98456 185.35201
-10.0376 3.9837999 185.317
-10.0056 3.98508 185.37601
-9.9713497 3.98545 185.39301
-9.9343901 3.98473 185.36
-9.9010401 3.98546 185.394
-9.8691902 3.98681 185.45599
-9.83535 3.98735 185.48199
-9.80476 3.9892199 185.569
-9.7740602 3.99107 185.655
-9.74086 3.9919 185.69299
-9.7075796 3.9927001 185.731
-9.6740999 3.9934299 185.76401
-9.6402798 3.99402 185.79201
-9.5425701 3.99739 185.94901
-9.51369 4.0000801 186.07401
-9.4813299 4.0013299 186.132
-9.4467297 4.0016298 186.146
-9.3089399 4.00313 186.216
-9.2751503 4.0037999 186.24699
-9.2381601 4.0030799 186.213
-9.2046204 4.00386 186.25
-9.1719198 4.0050101 186.30299
-9.1354303 4.0045199 186.28
-9.0988998 4.0039902 186.256
-9.06633 4.0052199 186.313
-9.0308304 4.0051498 186.31
-8.9925003 4.0038199 186.248
-8.9581604 4.0042701 186.269
-8.8912897 4.00599 186.349
-8.8599005 4.0077901 186.43201
-8.8249903 4.0079999 186.442
-8.7886105 4.0075402 186.42101
-8.7510004 4.0065098 186.373
-8.71418 4.0058498 186.342
-8.6835203 4.0080099 186.44299
-8.6486797 4.0082598 186.45399
-8.5781403 4.0083699 186.459
-8.5424004 4.0081902 186.451
-8.5089998 4.00913 186.495
-8.4754496 4.0099902 186.535
-8.4416304 4.0107398 186.57001
-8.40874 4.01194 186.62601
-8.3726997 4.0116401 186.61099
-8.3369198 4.0114598 186.603
-8.3032303 4.01229 186.642
-8.2381897 4.01511 186.77299
-8.2013302 4.01441 186.741
-8.1658602 4.0144 186.74001
-8.1312799 4.0148201 186.759
-8.0985203 4.01615 186.821
-8.0642004 4.0167098 186.847
-8.0286999 4.0166798 186.84599
-7.9936199 4.01687 186.855
-7.9604502 4.0180202 186.908
-7.9258599 4.0184598 186.929
-7.8905902 4.0185699 186.93401
-7.85741 4.0197401 186.98801
-7.8234301 4.0205102 187.024
-7.7897301 4.02143 187.067
-7.7551198 4.0218902 187.088
-7.7198 4.0219798 187.093
-7.6842599 4.0219598 187.092
-7.6522002 4.0237699 187.17599
-7.57758 4.0218601 187.08701
-7.54357 4.0226598 187.12399
-7.50735 4.0222702 187.106
-7.47436 4.0236301 187.16901
-7.4383302 4.0233498 187.15601
-7.4081202 4.0262299 187.28999
-7.3759298 4.02806 187.375
-7.3436098 4.02983 187.45799
-7.30615 4.02879 187.409
-7.2729602 4.0300999 187.47
-7.2383699 4.0306501 187.496
-7.2016902 4.0300298 187.467
-7.1654701 4.0296602 187.45
-7.09023 4.0273399 187.342
-7.0539899 4.0269399 187.323
-7.0233898 4.0297699 187.455
-6.9912801 4.0317702 187.548
-6.9556098 4.0317202 187.54601
-6.9219499 4.0328398 187.59801
-6.89112 4.0356302 187.728
-6.8591099 4.0377598 187.826
-6.8235002 4.0377698 187.827
-6.7855201 4.0363798 187.76199
-6.7480898 4.0353098 187.71201
-6.72018 4.0399399 187.92799
-6.6849899 4.0402198 187.94099
-6.5122299 4.08848 190.186
-6.47824 4.0897999 190.24699
-25.000401 4.0794802 188.104
-24.9643 4.0794101 188.101
-24.9231 4.0784998 188.05901
-24.913401 4.0827599 188.255
-24.870399 4.0815701 188.2
-24.739 4.0775599 188.015
-24.696199 4.0763898 187.961
-24.6518 4.0749402 187.895
-24.6082 4.0736299 187.834
-24.5735 4.0738001 187.842
-24.535 4.0733199 187.82001
-24.494301 4.0724802 187.78101
-24.458401 4.0724301 187.77901
-24.4217 4.0722499 187.771
-24.385599 4.0721698 187.767
-24.3512 4.0723701 187.776
-24.308001 4.0711098 187.718
-24.2747 4.0715098 187.73599
-24.2374 4.0712099 187.722
-24.180099 4.0675602 187.554
-24.120899 4.06359 187.371
-24.087799 4.0640101 187.39
-21.264799 4.0276699 185.715
-21.2222 4.0262599 185.64999
-21.178301 4.02461 185.57401
-21.133699 4.02284 185.492
-21.094299 4.0220299 185.455
-21.048401 4.01998 185.36
-21.0086 4.0191002 185.32001
-20.3356 4.0111899 184.955
-20.302799 4.0116601 184.976
-20.215401 4.0082402 184.819
-20.1472 4.0086298 184.83701
-20.111099 4.00841 184.827
-20.023899 4.0050101 184.67
-19.985001 4.00423 184.634
-19.7826 4.0058198 184.707
-19.742399 4.0047798 184.659
-19.624701 4.0022101 184.541
-19.5938 4.0030298 184.57899
-19.5513 4.0015101 184.509
-19.513399 4.0009098 184.481
-19.4848 4.0022302 184.54201
-19.4221 4.0037498 184.612
-19.3902 4.0043898 184.64101
-19.3549 4.0043402 184.63901
-19.321301 4.0046301 184.653
-19.2866 4.0047002 184.65601
-19.249201 4.00422 184.633
-19.165199 4.0012898 184.49899
-18.9167 4.0005698 184.465
-18.881399 4.0005102 184.46201
-18.8414 3.99946 184.414
-18.8032 3.99876 184.382
-18.725401 3.9970901 184.30499
-18.682899 3.9954901 184.231
-18.658701 3.9977901 184.33701
-18.6271 3.9985199 184.371
-18.593599 3.9988301 184.38499
-18.558901 3.9988799 184.38699
-18.5219 3.9984601 184.368
-18.4893 3.99898 184.392
-18.0868 4.0105801 184.927
-17.8923 4.0141702 185.092
-16.955799 4.0846901 188.34399
-16.9224 4.0852499 188.37
-16.888901 4.0858002 188.395
-16.8472 4.0843501 188.328
-16.8095 4.0838699 188.306
-16.737801 4.0838099 188.30299
-16.703899 4.08427 188.325
-16.672001 4.0851898 188.367
-16.635 4.0848999 188.354
-16.598499 4.0847001 188.34399
-16.558599 4.0836701 188.297
-16.516399 4.0820899 188.224
-16.4753 4.08073 188.162
-16.438299 4.08043 188.14799
-16.406 4.0812702 188.186
-16.368999 4.0809498 188.172
-16.330299 4.0802002 188.13699
-16.294001 4.08004 188.13
-16.264099 4.0815001 188.19701
-16.238501 4.0840302 188.314
-16.169901 4.0847702 188.34801
-16.135 4.08497 188.35699
-16.063 4.0848298 188.351
-15.9807 4.0820899 188.224
-15.9418 4.0812702 188.186
-14.9255 4.0191302 185.321
-14.8838 4.0173802 185.24001
-14.8437 4.0160398 185.17799
-14.8019 4.0142298 185.095
-14.7651 4.0137601 185.073
-14.7245 4.01228 185.005
-14.681 4.0099602 184.89799
-14.6402 4.0084 184.826
-14.5979 4.0064201 184.735
-14.5569 4.0047798 184.659
-14.4822 4.00351 184.601
-14.4477 4.0036402 184.60699
-14.4097 4.00282 184.569
-14.3711 4.0018301 184.52299
-14.3355 4.0016799 184.51601
-14.2985 4.0011001 184.49001
-14.2599 4.0000901 184.44299
-14.2197 3.9986401 184.37601
-14.1421 3.99648 184.27699
-14.1025 3.9951799 184.217
-14.0661 3.99476 184.19701
-14.0328 3.99523 184.21899
-13.9989 3.9955201 184.23199
-13.9564 3.9933801 184.134
-13.9173 3.9921801 184.078
-13.8767 3.99055 184.00301
-13.8382 3.9895201 183.955
-13.8036 3.98961 183.96001
-13.7637 3.9881699 183.89301
-13.7239 3.9867301 183.827
-13.6917 3.98752 183.86301
-13.6562 3.9873199 183.854
-13.6162 3.9858301 183.786
-13.5802 3.9855101 183.771
-13.5466 3.9858799 183.78799
-13.5093 3.9851601 183.754
-13.4753 3.98542 183.767
-13.4387 3.98489 183.742
-13.4048 3.9851799 183.756
-13.3642 3.98348 183.677
-13.3288 3.98331 183.66901
-13.2933 3.98312 183.661
-13.2575 3.98283 183.647
-13.2181 3.9814701 183.584
-13.1795 3.98032 183.532
-13.1545 3.98331 183.66901
-13.1174 3.9826 183.63699
-13.0885 3.9844401 183.72099
-13.0531 3.9842701 183.714
-13.0224 3.9855199 183.771
-12.9379 3.9809899 183.562
-12.9046 3.9814501 183.584
-12.8675 3.9807601 183.552
-12.7891 3.97803 183.42599
-12.7596 3.9796801 183.502
-12.7227 3.9790599 183.47301
-12.189 3.98665 183.823
-12.1553 3.98704 183.841
-12.1186 3.98647 183.815
-12.0858 3.98715 183.847
-12.0506 3.98703 183.841
-12.0156 3.98698 183.839
-11.9853 3.9885299 183.91
-11.9525 3.9892299 183.942
-11.9174 3.98915 183.939
-11.8838 3.9895799 183.95799
-11.8494 3.9897699 183.967
-11.8147 3.98984 183.97099
-11.7852 3.9916501 184.054
-11.7514 3.9920299 184.07201
-11.7184 3.9927101 184.103
-11.6801 3.99154 184.049
-11.6479 3.99247 184.092
-11.6154 3.99331 184.131
-11.5767 3.9920199 184.071
-11.5401 3.9914401 184.04401
-11.5088 3.9926801 184.10201
-11.472 3.9920499 184.07201
-11.4353 3.99143 184.04401
-11.4024 3.99213 184.076
-11.371 3.9933901 184.134
-11.3395 3.99458 184.189
-11.3038 3.9943199 184.177
-11.2698 3.9946499 184.192
-11.2356 3.99491 184.20399
-11.2024 3.9955599 184.23399
-11.1668 3.9953101 184.22301
-11.137 3.99718 184.30901
-11.1075 3.99915 184.39999
-11.0722 3.9990201 184.394
-11.0408 4.00033 184.45399
-11.0078 4.00104 184.487
-10.9721 4.0008101 184.476
-10.9388 4.00141 184.504
-10.9058 4.0021501 184.53799
-10.8745 4.00353 184.60201
-10.8387 4.0032401 184.588
-10.8046 4.0035901 184.604
-10.7721 4.00453 184.64799
-10.7392 4.0053301 184.685
-10.7074 4.0065298 184.74001
-10.6761 4.0079298 184.804
-10.6452 4.00951 184.87801
-10.6103 4.0095701 184.88
-10.5767 4.01015 184.907
-10.5444 4.01121 184.95599
-10.5094 4.01125 184.957
-10.4764 4.0120301 184.993
-10.4432 4.0127602 185.02699
-10.4054 4.0117202 184.979
-10.3703 4.0117402 184.98
-10.3384 4.01297 185.037
-10.3064 4.0141702 185.092
-10.2729 4.0148201 185.12199
-10.2392 4.0153899 185.14799
-10.2067 4.0163999 185.19501
-10.1735 4.01718 185.231
-10.1414 4.0183702 185.286
-10.1093 4.0195799 185.342
-10.0743 4.01967 185.34599
-10.0386 4.0194402 185.33501
-10.0063 4.0205898 185.388
-9.9719 4.0209098 185.403
-9.9353304 4.02035 185.377
-9.9000797 4.0203199 185.37601
-9.8649902 4.02036 185.377
-9.8323803 4.0214 185.42599
-9.8039198 4.0241599 185.55299
-9.77073 4.0249901 185.591
-9.7399797 4.0268402 185.677
-9.6718702 4.0278201 185.722
-9.63871 4.0286899 185.76199
-9.6036701 4.02878 185.76601
-9.5692101 4.0290999 185.78101
-9.5114498 4.0345101 186.03
-9.4452696 4.0363998 186.117
-9.4064903 4.0349102 186.049
-9.3715296 4.0350599 186.05499
-9.31005 4.0390201 186.23801
-9.2759104 4.0395398 186.26199
-9.2400398 4.03931 186.25101
-9.20609 4.0399098 186.27901
-9.1715097 4.0402498 186.295
-9.1335402 4.0390902 186.242
-9.0970097 4.0385599 186.217
-9.0614595 4.0384698 186.213
-9.0263996 4.03859 186.218
-8.9935503 4.03971 186.27
-8.9612598 4.04108 186.33299
-8.8930397 4.0422201 186.38499
-8.8605003 4.0434999 186.44501
-8.8258696 4.0438499 186.461
-8.7906103 4.0439 186.463
-8.7523603 4.0425801 186.40199
-8.71416 4.0412598 186.342
-8.6477003 4.0432501 186.433
-8.6093102 4.0418301 186.368
-8.5731897 4.0414801 186.351
-8.5394001 4.0422201 186.386
-8.5065298 4.0434098 186.44
-8.4738903 4.0447102 186.50101
-8.4381504 4.0445399 186.493
-8.3696203 4.04563 186.543
-8.3360596 4.0465202 186.584
-8.3023396 4.0473399 186.62199
-8.2662401 4.0469999 186.606
-8.2328796 4.0480099 186.65199
-8.1965103 4.0475402 186.631
-8.1617298 4.0478501 186.645
-8.1289501 4.04916 186.70599
-8.0959301 4.0503602 186.761
-8.0613499 4.0507898 186.78101
-8.02775 4.0517302 186.82401
-7.9899302 4.0505199 186.76801
-7.9556999 4.0511398 186.797
-7.92343 4.0527601 186.87199
-7.8880801 4.0528202 186.87399
-7.8524799 4.0527401 186.871
-7.8201499 4.0543699 186.946
-7.7866101 4.0553699 186.992
-7.7541199 4.0569401 187.064
-7.7195101 4.0574002 187.086
-7.6813698 4.0560098 187.021
-7.6491399 4.0577302 187.101
-7.6138 4.0578198 187.105
-7.5752501 4.05619 187.03
-7.5403099 4.0564799 187.043
-7.5043898 4.0562501 187.032
-7.4737902 4.0588999 187.155
-7.4404898 4.0601101 187.211
-7.4089298 4.0622802 187.311
-7.3755202 4.0634499 187.36501
-7.3413401 4.0642099 187.39999
-7.30441 4.0634499 187.36501
-7.2719002 4.0651498 187.44299
-7.2371898 4.06563 187.465
-7.19978 4.06459 187.41701
-7.1637201 4.0643101 187.40401
-7.1289701 4.0647702 187.425
-7.0920601 4.0640001 187.39
-7.05586 4.0636301 187.373
-7.02423 4.0658998 187.47701
-6.99089 4.0672002 187.537
-6.9568501 4.0681 187.57899
-6.9258699 4.0708098 187.70399
-6.8937802 4.0728898 187.8
-6.85638 4.0718498 187.752
-6.8189602 4.0707698 187.702
-6.78368 4.0709801 187.71201
-6.7502298 4.0722799 187.772
-6.7189298 4.0749102 187.89301
-6.6813798 4.07375 187.839
-6.4394698 4.1242599 190.168
-6.27563 4.13518 190.672
-24.9611 4.1146402 188.076
-24.920099 4.11376 188.036
-24.891701 4.1149802 188.092
-24.7395 4.1134 188.02
-24.6915 4.1113501 187.92599
-24.646299 4.1097598 187.853
-24.6091 4.1094999 187.841
-24.553301 4.1120901 187.959
-24.5159 4.1118002 187.946
-24.4802 4.1118002 187.946
-24.4319 4.1096702 187.849
-24.388599 4.1083798 187.78999
-24.360399 4.1096401 187.847
-24.3246 4.1096101 187.84599
-24.288601 4.10954 187.843
-24.184099 4.10391 187.586
-24.150499 4.10425 187.601
-23.993799 4.0957298 187.21201
-21.5571 4.0716 186.10899
-21.5133 4.0699902 186.035
-21.235701 4.0641398 185.76801
-21.1903 4.0622101 185.679
-21.1486 4.0609498 185.62199
-21.1124 4.06077 185.614
-21.004801 4.0604 185.597
-20.964399 4.0593901 185.55099
-20.9221 4.0580201 185.48801
-20.882099 4.0570798 185.44501
-20.841999 4.0561199 185.401
-20.386999 4.0495901 185.103
-20.231899 4.04667 184.96899
-20.1957 4.0464602 184.96001
-20.1556 4.0454502 184.914
-20.117399 4.0448198 184.88499
-20.0748 4.0433102 184.81599
-20.030701 4.0415001 184.733
-19.907801 4.0450101 184.894
-19.832199 4.04389 184.842
-19.6805 4.0415602 184.73599
-19.635 4.0394001 184.63699
-19.438299 4.0422101 184.765
-19.4042 4.0424099 184.77499
-19.365601 4.0416698 184.741
-19.330799 4.0417299 184.743
-19.297001 4.0419898 184.756
-18.9254 4.0374899 184.55
-18.893101 4.0380702 184.576
-18.667 4.0346198 184.41901
-18.646799 4.0378399 184.56599
-18.610901 4.0376301 184.556
-18.113199 4.0437999 184.838
-16.986601 4.1106501 187.894
-16.9979 4.1220298 188.414
-16.947901 4.1185699 188.256
-16.883499 4.1202898 188.334
-16.8426 4.11903 188.27699
-16.8071 4.1190901 188.27901
-16.7782 4.12077 188.356
-16.736601 4.1193299 188.291
-16.7012 4.1194 188.29401
-16.6649 4.1192498 188.287
-16.6264 4.1185699 188.256
-16.5916 4.1187901 188.26601
-16.563601 4.1207099 188.354
-16.5242 4.1198001 188.312
-16.4814 4.1180301 188.231
-16.441799 4.1170602 188.187
-16.4055 4.11692 188.17999
-16.3699 4.11695 188.18201
-16.334 4.1169 188.17999
-16.2988 4.1170402 188.186
-16.265301 4.1175799 188.211
-16.239201 4.1200199 188.32201
-16.206301 4.1207299 188.355
-16.171801 4.1210499 188.369
-16.132401 4.1201301 188.327
-16.093 4.1191902 188.284
-16.052999 4.1180902 188.23399
-16.011801 4.1166701 188.16901
-15.9287 4.1136599 188.03101
-14.8534 4.0538702 185.299
-14.8058 4.0504899 185.144
-14.7648 4.0488801 185.07001
-14.7231 4.04705 184.987
-14.6811 4.0451598 184.901
-14.6384 4.0430598 184.804
-14.5979 4.0415401 184.735
-14.5603 4.0408401 184.703
-14.5198 4.03932 184.633
-14.4818 4.0384898 184.59599
-14.4453 4.0380802 184.577
-14.409 4.0377102 184.56
-14.3725 4.0373101 184.541
-14.3363 4.0369802 184.52699
-14.2994 4.0364299 184.50101
-14.2605 4.0353498 184.452
-14.2212 4.0341301 184.396
-14.1815 4.0327802 184.334
-14.1428 4.0317101 184.286
-14.1034 4.0304599 184.228
-14.0674 4.0301399 184.214
-14.0339 4.03058 184.23399
-14.0028 4.0316801 184.284
-13.9602 4.02949 184.18401
-13.917 4.0271001 184.075
-13.8775 4.0257702 184.01401
-13.8388 4.0246601 183.963
-13.8002 4.0236001 183.91499
-13.7595 4.0219002 183.83701
-13.7232 4.0214801 183.81799
-13.6887 4.0215802 183.82201
-13.6513 4.0208502 183.789
-13.6161 4.02075 183.785
-13.5832 4.0213199 183.811
-13.5472 4.0209799 183.795
-13.5112 4.0206599 183.78
-13.4778 4.0211101 183.80099
-13.4397 4.0201302 183.756
-13.4034 4.01969 183.73599
-13.3642 4.0183902 183.677
-13.3291 4.0183201 183.673
-13.2975 4.0193 183.718
-13.2622 4.0191698 183.71201
-13.2239 4.0181298 183.66499
-13.1536 4.0179501 183.65601
-13.1182 4.0177698 183.64799
-13.0858 4.0185299 183.683
-13.0524 4.01896 183.703
-13.0185 4.0192699 183.717
-12.9267 4.0124102 183.403
-12.9027 4.01578 183.558
-12.1898 4.0218902 183.836
-12.155 4.0218902 183.83701
-12.12 4.0218601 183.83501
-12.0877 4.0227098 183.87399
-12.0519 4.0224299 183.86099
-12.0182 4.02281 183.879
-11.9862 4.0237899 183.923
-11.9523 4.0241098 183.938
-11.9182 4.0244098 183.952
-11.8815 4.0237899 183.923
-11.8437 4.02279 183.87801
-11.8102 4.0232701 183.89999
-11.7821 4.0256 184.006
-11.7497 4.0264602 184.04601
-11.7154 4.02668 184.05499
-11.6774 4.02562 184.007
-11.6454 4.0266299 184.05299
-11.6136 4.02771 184.103
-11.5743 4.0261798 184.033
-11.5374 4.0254998 184.002
-11.5091 4.0278101 184.10699
-11.4736 4.0275898 184.097
-11.4386 4.0275602 184.09599
-11.4032 4.02742 184.089
-11.3707 4.0282898 184.129
-11.3393 4.0295401 184.186
-11.3052 4.02982 184.19901
-11.2709 4.0300798 184.211
-11.2379 4.0307598 184.242
-11.2022 4.03052 184.231
-11.1672 4.0304799 184.229
-11.1367 4.0321102 184.304
-11.1091 4.03476 184.425
-11.0724 4.0341501 184.397
